1182,1178,1176,1175,1175,1171,1162,1146,1127,1104,1079,1052,1026,1004,991,984,980,978,976,975,974,974,975,976,976,976,976,978,983,991,1001,1013,1027,1040,1054,1066,1076,1085,1096,1109,1121,1134,1145,1153,1159,1163,1164,1164,1163,1159,1152,1144,1135,1121,1111,1103,1097,1095,1095,1094,1092,1089,1089,1090,1091,1092,1096,1103,1111,1118,1126,1135,1145,1151,1154,1152,1153,1152,1148,1143,1136,1130,1126,1123,1121,1119,1117,1116,1115,1114,1114,1113,1113,1113,1114,1115,1115,1114,1112,1109,1108,1108,1109,1110,1112,1113,1115,1115,1116,1114,1107,1099,1090,1083,1075,1068,1061,1054,1047,1042,1039,1037,1036,1036,1038,1040,1043,1046,1050,1053,1056,1060,1060,1056,1050,1041,1032,1020,1008,999,991,980,969,960,955,952,949,945,941,938,935,931,931,933,935,935,934,932,930,930,930,932,934,936,939,941,943,945,949,954,958,959,958,956,956,958,960,960,959,960,962,963,963,962,959,953,947,939,931,923,915,907,898,889,876,864,852,843,833,825,817,809,802,794,782,769,749,732,715,698,682,667,650,631,617,605,596,588,580,572,565,559,554,549,544,539,536,534,531,528,524,520,512,500,486,471,458,446,435,426,418,411,406,403,401,398,394,389,386,386
1183,1180,1177,1175,1175,1172,1166,1155,1141,1119,1093,1064,1036,1011,995,987,982,978,976,974,973,973,973,974,974,975,975,977,984,992,1003,1015,1027,1038,1049,1060,1071,1083,1097,1110,1122,1132,1143,1151,1157,1162,1165,1166,1163,1159,1151,1138,1125,1110,1098,1089,1084,1083,1083,1083,1084,1084,1084,1084,1085,1086,1090,1097,1104,1112,1122,1132,1142,1148,1148,1142,1138,1135,1131,1125,1119,1114,1110,1109,1108,1108,1107,1107,1107,1107,1108,1109,1109,1109,1109,1109,1109,1108,1105,1104,1103,1102,1103,1105,1108,1109,1109,1108,1107,1104,1098,1090,1082,1074,1068,1061,1054,1047,1043,1039,1035,1033,1031,1028,1028,1028,1030,1033,1035,1037,1039,1041,1041,1037,1031,1022,1010,1002,993,985,974,963,956,950,947,945,942,939,936,932,928,924,923,925,927,927,925,924,922,923,924,926,928,931,934,935,934,934,937,941,944,946,945,944,944,945,946,947,947,947,949,951,951,950,946,941,934,926,919,912,906,898,889,878,865,853,842,832,824,815,807,800,794,786,772,755,735,714,697,681,665,649,633,616,604,594,587,580,573,565,558,554,549,545,542,538,535,534,531,526,519,512,508,500,491,477,464,451,439,429,420,414,409,405,402,399,395,390,386,386
1185,1184,1182,1182,1179,1175,1169,1162,1151,1133,1107,1076,1045,1018,1000,990,985,982,978,975,973,971,971,971,971,972,973,977,983,993,1005,1016,1027,1036,1044,1052,1061,1075,1092,1108,1121,1132,1142,1151,1160,1166,1168,1167,1161,1154,1145,1132,1116,1101,1088,1081,1078,1076,1076,1077,1078,1077,1078,1077,1077,1079,1085,1091,1099,1107,1116,1126,1137,1140,1137,1130,1124,1120,1116,1112,1107,1103,1101,1101,1101,1100,1100,1100,1101,1102,1103,1104,1105,1105,1106,1106,1105,1103,1101,1100,1099,1098,1099,1101,1103,1103,1101,1099,1096,1092,1087,1081,1074,1067,1060,1053,1046,1040,1036,1034,1030,1025,1021,1017,1014,1013,1015,1017,1018,1019,1019,1020,1018,1015,1007,1000,991,985,978,969,958,948,945,942,940,939,936,933,929,925,920,916,915,916,917,917,915,914,915,916,916,916,916,918,919,918,917,919,923,927,930,931,930,930,930,932,933,933,934,936,939,941,941,938,933,928,921,914,907,902,896,889,878,866,854,842,832,823,814,805,798,791,785,777,761,740,717,698,681,664,647,631,618,603,594,586,579,572,565,560,555,551,549,546,542,538,534,529,526,520,512,505,499,493,487,479,470,458,446,435,426,417,411,407,403,401,397,391,387,387
1187,1188,1189,1189,1186,1180,1173,1165,1156,1143,1120,1089,1056,1027,1005,994,988,984,980,976,973,969,968,968,968,970,972,976,982,992,1003,1014,1024,1031,1036,1042,1049,1062,1079,1098,1113,1124,1134,1142,1149,1154,1156,1151,1146,1139,1131,1118,1103,1092,1081,1076,1074,1073,1074,1074,1074,1072,1071,1069,1069,1072,1078,1085,1093,1101,1109,1117,1124,1126,1123,1117,1111,1107,1104,1101,1098,1096,1094,1093,1092,1093,1094,1095,1095,1096,1098,1099,1100,1101,1102,1102,1101,1098,1094,1092,1091,1092,1092,1093,1093,1092,1092,1090,1087,1083,1078,1072,1066,1059,1052,1045,1038,1033,1029,1025,1020,1014,1009,1004,1001,1000,1001,1002,1001,1001,999,998,997,993,986,981,976,970,961,951,944,937,935,934,933,933,931,928,922,916,910,906,905,905,905,905,904,904,905,905,903,901,899,899,899,899,899,902,908,912,914,914,914,914,915,916,915,916,917,921,925,928,928,924,919,914,909,903,897,892,884,875,863,852,840,831,821,815,807,799,791,784,776,766,748,724,701,683,666,649,632,616,605,594,586,580,573,567,561,556,554,551,550,547,543,537,532,526,520,513,506,500,495,490,484,478,471,462,453,444,435,426,418,412,407,404,400,394,389,388
1187,1190,1192,1191,1187,1182,1175,1168,1159,1149,1129,1101,1067,1035,1012,999,992,987,982,977,973,969,965,964,965,967,971,975,980,989,1000,1010,1019,1025,1030,1033,1040,1052,1066,1079,1094,1103,1111,1118,1125,1130,1133,1132,1129,1122,1112,1102,1090,1083,1077,1074,1070,1068,1067,1068,1067,1067,1065,1063,1063,1066,1072,1079,1086,1093,1101,1107,1111,1111,1109,1104,1099,1096,1095,1093,1092,1090,1088,1086,1086,1086,1087,1089,1091,1092,1094,1095,1095,1096,1096,1097,1095,1091,1087,1085,1085,1085,1084,1083,1082,1082,1082,1080,1078,1075,1071,1066,1060,1052,1045,1037,1030,1025,1019,1013,1007,1001,996,991,988,988,988,988,987,986,983,981,979,976,972,966,960,953,945,936,932,928,926,925,924,923,921,918,912,905,898,894,893,893,893,893,893,892,891,890,887,884,881,881,880,880,881,885,891,896,897,897,895,895,895,896,896,898,901,905,908,911,912,909,904,899,894,889,882,876,868,857,845,835,825,820,814,808,803,795,786,777,766,752,733,710,687,671,654,638,621,607,596,587,580,575,569,565,560,556,552,550,547,544,540,535,530,526,520,512,505,500,494,487,480,473,466,460,454,448,441,433,424,416,411,407,402,395,390,389
1185,1188,1190,1190,1187,1182,1176,1169,1162,1153,1137,1111,1076,1042,1018,1003,995,989,983,978,975,970,965,961,961,965,968,971,976,984,995,1005,1014,1021,1027,1032,1038,1047,1058,1067,1076,1083,1091,1099,1106,1111,1114,1116,1112,1105,1096,1091,1083,1078,1072,1069,1062,1057,1056,1058,1059,1061,1059,1058,1057,1060,1066,1073,1080,1085,1092,1097,1100,1099,1098,1094,1091,1088,1087,1087,1086,1085,1083,1083,1082,1082,1083,1084,1086,1088,1090,1090,1090,1090,1091,1091,1089,1085,1081,1080,1079,1078,1076,1073,1071,1071,1071,1071,1069,1067,1064,1061,1054,1046,1037,1029,1020,1013,1007,1001,995,989,983,978,975,974,975,974,974,972,970,967,965,962,958,952,945,937,933,927,922,917,914,912,911,910,907,903,897,891,884,880,879,878,878,878,878,877,875,873,870,866,864,862,861,861,862,866,873,879,881,880,877,875,874,874,877,881,885,888,891,893,894,893,888,883,876,870,864,857,848,838,827,820,813,809,806,802,797,790,779,768,754,734,712,695,675,661,646,629,614,600,591,583,576,572,568,564,560,555,550,547,543,539,535,532,528,523,519,513,509,504,495,485,476,467,460,454,448,443,437,429,422,416,411,408,403,396,390,389
1183,1186,1188,1189,1187,1182,1176,1171,1165,1158,1145,1121,1086,1051,1025,1008,998,990,984,979,975,970,964,959,958,961,964,967,971,979,990,1002,1013,1023,1028,1033,1037,1045,1053,1061,1066,1072,1078,1086,1090,1095,1097,1097,1093,1087,1081,1078,1075,1071,1064,1057,1051,1046,1046,1048,1051,1053,1052,1050,1052,1055,1062,1069,1074,1078,1083,1087,1090,1090,1090,1088,1087,1085,1084,1082,1082,1082,1081,1080,1080,1080,1079,1080,1081,1083,1084,1085,1085,1086,1086,1086,1084,1080,1077,1075,1073,1071,1068,1065,1064,1063,1062,1062,1061,1059,1057,1053,1047,1038,1029,1019,1010,1002,995,988,982,977,971,966,961,959,959,960,960,958,956,954,951,946,941,934,930,925,921,914,908,901,898,897,897,895,890,886,881,875,869,862,860,860,859,859,859,858,856,854,851,848,846,843,842,842,843,847,854,860,862,861,859,856,854,855,857,861,865,868,871,874,876,875,871,866,859,852,846,838,829,819,811,805,801,798,794,791,786,778,765,748,729,710,690,678,666,652,639,623,609,598,588,580,575,571,567,564,560,556,552,548,544,540,537,532,528,522,517,514,513,508,500,487,475,465,456,448,441,435,429,423,418,414,411,408,404,396,390,388
1181,1185,1188,1189,1188,1184,1179,1174,1169,1163,1152,1131,1099,1065,1035,1015,1001,993,987,979,971,965,961,957,956,957,959,962,967,975,987,1000,1013,1023,1029,1030,1031,1035,1044,1051,1057,1063,1069,1073,1075,1079,1081,1079,1075,1068,1064,1061,1060,1056,1050,1043,1039,1037,1037,1041,1044,1045,1045,1043,1045,1050,1057,1063,1068,1071,1075,1078,1082,1084,1086,1085,1085,1083,1082,1082,1081,1080,1078,1077,1076,1076,1076,1076,1077,1079,1082,1084,1085,1084,1084,1082,1080,1076,1073,1070,1067,1065,1063,1061,1060,1059,1056,1053,1051,1049,1046,1041,1034,1026,1017,1008,998,989,981,975,969,964,959,953,946,942,943,944,944,942,940,938,934,929,925,918,916,914,907,897,888,884,880,879,879,876,872,866,860,854,848,843,840,840,840,839,838,837,835,832,830,828,826,825,823,823,825,829,835,841,844,844,842,839,837,838,839,841,844,847,849,852,854,855,851,846,840,833,826,819,810,802,795,790,786,781,775,771,763,754,739,721,701,687,672,663,654,644,632,618,606,596,588,582,576,573,570,566,563,560,557,554,550,547,543,538,532,526,520,516,512,508,500,489,477,466,454,444,434,427,421,417,414,412,410,408,404,397,391,389
1180,1186,1190,1192,1193,1189,1185,1179,1172,1164,1153,1136,1112,1080,1049,1023,1007,999,992,981,970,963,960,958,956,955,956,958,962,969,979,990,1001,1011,1018,1020,1021,1022,1026,1032,1038,1046,1054,1059,1061,1063,1065,1064,1058,1052,1047,1044,1043,1039,1036,1031,1027,1027,1029,1033,1036,1038,1038,1038,1039,1044,1051,1056,1060,1062,1066,1070,1075,1078,1080,1081,1081,1082,1082,1083,1083,1080,1077,1075,1074,1073,1073,1073,1075,1077,1080,1081,1080,1079,1078,1076,1073,1071,1068,1066,1064,1062,1060,1059,1056,1052,1047,1043,1041,1038,1034,1027,1019,1011,1002,994,985,976,969,963,957,951,944,937,929,925,926,927,926,923,921,918,915,910,908,905,899,893,881,873,866,864,861,859,857,854,849,842,835,831,826,823,821,820,819,818,815,814,813,812,810,809,808,807,806,806,807,810,816,822,826,827,826,823,822,823,823,822,822,823,825,826,828,829,828,823,818,812,806,799,792,785,779,773,768,762,756,748,738,726,710,694,677,668,659,651,644,635,625,615,604,595,588,587,583,580,575,572,570,567,564,561,558,553,548,543,538,531,524,518,510,503,495,485,475,465,454,442,430,422,416,412,410,410,409,407,403,398,392,390
1174,1181,1186,1189,1189,1187,1183,1178,1171,1162,1151,1138,1119,1091,1060,1034,1017,1007,996,982,970,963,960,958,956,954,953,954,957,963,971,979,987,996,1002,1005,1004,1004,1005,1010,1017,1027,1035,1040,1043,1044,1045,1043,1038,1034,1030,1028,1027,1025,1025,1020,1017,1018,1021,1025,1029,1032,1033,1033,1035,1039,1044,1049,1052,1055,1059,1063,1068,1072,1075,1076,1079,1081,1083,1083,1081,1078,1074,1072,1070,1069,1069,1070,1072,1072,1073,1073,1071,1070,1068,1066,1065,1064,1063,1062,1060,1059,1056,1053,1048,1042,1037,1033,1030,1026,1021,1014,1004,995,987,979,971,963,956,950,944,937,928,918,910,906,907,907,906,903,900,897,894,891,884,882,873,862,849,844,841,840,838,835,833,830,825,817,810,807,805,802,799,798,797,795,794,793,793,792,790,790,790,790,789,790,790,791,795,799,803,805,805,806,808,809,807,802,799,799,800,801,803,805,804,800,796,792,787,782,776,769,761,753,748,744,737,729,717,703,686,674,662,655,648,641,634,626,617,609,600,594,589,588,586,583,578,575,574,574,571,566,562,556,548,541,534,528,524,517,508,498,488,480,472,464,455,443,431,420,413,408,407,408,408,406,402,397,393,390
1160,1168,1173,1176,1176,1176,1173,1169,1163,1155,1147,1137,1123,1099,1071,1045,1028,1016,1001,984,971,965,961,959,955,952,951,952,954,958,962,967,972,978,982,985,987,989,991,993,996,1003,1010,1017,1021,1022,1021,1020,1016,1015,1014,1013,1013,1013,1014,1012,1009,1011,1014,1020,1025,1028,1029,1030,1031,1033,1037,1042,1046,1050,1053,1058,1063,1067,1070,1073,1076,1079,1080,1079,1077,1073,1069,1066,1064,1064,1064,1065,1065,1064,1063,1062,1062,1062,1061,1060,1059,1058,1058,1058,1057,1056,1052,1046,1040,1035,1030,1025,1021,1015,1008,1000,990,980,971,964,957,950,943,935,927,918,909,899,892,888,888,886,884,881,878,874,869,865,855,847,837,828,818,816,815,813,812,809,808,806,801,792,786,783,782,779,777,776,776,775,775,773,772,771,770,769,769,770,770,769,767,765,768,774,778,781,784,787,792,794,790,784,781,781,781,782,783,786,786,782,779,774,770,765,760,753,745,738,733,729,720,709,695,683,669,660,653,646,640,633,627,621,612,605,597,592,588,586,583,580,578,576,577,576,573,569,565,561,552,541,531,525,518,512,504,494,484,475,468,461,453,442,431,421,413,407,404,403,402,401,400,400,396,392
1142,1150,1157,1159,1160,1159,1158,1155,1150,1144,1136,1127,1114,1095,1073,1054,1038,1024,1007,990,977,969,963,959,954,951,950,951,952,955,957,959,961,964,967,970,974,977,977,976,975,978,982,989,994,996,995,997,996,999,1002,1003,1003,1005,1006,1004,1003,1005,1010,1018,1024,1027,1028,1028,1028,1028,1031,1035,1040,1044,1048,1053,1058,1062,1065,1067,1070,1071,1072,1070,1068,1064,1061,1058,1057,1057,1057,1057,1057,1056,1054,1053,1054,1056,1057,1057,1055,1054,1053,1053,1052,1051,1046,1040,1034,1029,1023,1017,1010,1002,994,985,975,965,956,949,943,934,925,916,905,895,888,880,874,869,867,865,861,857,852,848,841,833,821,811,801,795,789,789,788,787,785,784,783,780,775,770,764,762,760,758,757,756,757,757,757,753,750,748,746,744,742,742,741,741,741,741,745,750,755,759,762,765,768,769,768,765,763,763,764,765,766,769,769,767,763,760,755,751,746,741,735,728,720,713,703,691,678,668,658,651,646,640,634,628,622,617,610,604,596,591,587,584,580,577,575,574,574,572,569,569,567,563,555,544,534,524,515,506,499,491,481,473,464,457,449,441,431,422,414,407,403,400,398,397,398,399,397,394
1123,1131,1137,1139,1138,1135,1133,1131,1126,1121,1115,1108,1098,1085,1071,1058,1046,1032,1017,1001,989,978,968,960,953,950,948,949,950,952,952,952,952,952,954,956,960,964,964,960,958,959,960,965,969,973,975,979,984,990,996,998,999,1000,999,998,997,1000,1007,1017,1024,1027,1027,1027,1026,1025,1027,1030,1035,1039,1042,1046,1050,1054,1056,1058,1060,1059,1058,1056,1054,1051,1049,1047,1046,1047,1048,1049,1049,1049,1050,1052,1052,1053,1054,1054,1052,1050,1049,1048,1047,1044,1039,1033,1027,1021,1013,1004,995,987,977,968,959,949,941,932,923,910,900,892,884,874,866,861,856,850,847,843,839,833,827,821,811,801,789,780,772,767,765,764,764,762,759,759,758,756,751,748,744,742,740,738,738,739,739,740,738,734,730,727,725,723,721,720,720,720,721,722,724,729,733,737,740,742,743,745,745,746,747,748,749,750,750,751,750,750,748,745,742,738,734,730,726,719,709,698,687,675,664,655,649,644,641,636,631,624,618,613,607,602,597,592,588,583,580,575,573,569,567,566,566,566,566,562,555,546,537,528,517,506,497,489,480,470,461,452,444,438,431,424,416,410,405,401,398,395,394,394,393,392
1103,1109,1111,1109,1106,1103,1100,1097,1095,1092,1091,1087,1083,1077,1069,1061,1052,1041,1027,1014,1002,990,976,964,954,948,945,945,946,946,944,942,941,941,941,942,945,947,950,951,951,950,950,953,957,961,965,971,978,985,990,993,993,993,992,992,992,996,1005,1015,1023,1026,1027,1026,1024,1022,1022,1025,1029,1032,1033,1036,1038,1041,1043,1044,1044,1043,1041,1039,1038,1036,1035,1034,1035,1037,1041,1046,1049,1051,1053,1054,1053,1052,1052,1050,1048,1046,1044,1043,1041,1037,1031,1025,1018,1009,999,989,980,969,956,946,938,929,921,909,893,881,874,870,865,857,847,841,836,831,826,819,814,808,801,793,784,773,763,755,749,746,744,743,742,741,739,737,736,734,731,728,726,724,722,721,720,721,721,721,719,716,712,709,709,708,707,705,705,706,707,707,708,711,714,717,719,722,724,726,728,729,731,733,734,735,735,735,734,733,733,731,728,724,721,719,715,708,699,687,676,665,653,645,640,637,635,631,626,621,615,611,606,601,597,593,590,585,582,576,571,566,564,563,563,564,563,559,554,547,539,532,522,512,502,493,483,472,461,450,442,435,429,424,419,414,409,404,398,393,391,389,389,390
1082,1087,1087,1086,1084,1083,1081,1079,1078,1079,1080,1079,1077,1075,1071,1067,1059,1048,1036,1024,1010,995,981,968,957,949,944,943,942,940,939,938,938,939,939,939,939,941,943,946,946,944,945,948,952,957,963,969,977,983,987,989,988,987,987,987,987,992,1001,1012,1019,1023,1023,1021,1018,1016,1015,1017,1021,1024,1023,1023,1024,1025,1026,1026,1025,1025,1026,1025,1027,1029,1031,1033,1035,1039,1043,1047,1050,1051,1050,1049,1048,1046,1045,1043,1040,1038,1036,1033,1028,1022,1017,1013,1009,1000,987,975,962,948,932,919,910,900,891,881,865,857,854,853,846,838,828,820,814,808,802,796,788,781,775,767,759,750,740,735,730,728,728,727,727,727,725,720,717,714,711,709,708,706,704,702,702,703,703,701,699,697,694,693,694,694,693,692,692,692,693,693,694,696,699,701,703,705,708,711,713,714,716,718,719,721,722,722,721,721,720,718,715,712,709,707,702,696,687,677,666,658,648,640,634,631,629,626,621,618,613,609,606,602,599,595,593,590,586,580,574,567,563,562,561,561,558,555,550,545,539,534,526,518,510,501,491,479,466,452,441,431,425,420,417,413,411,406,399,394,391,391,391,392
1064,1067,1068,1072,1074,1074,1072,1069,1068,1070,1072,1074,1075,1074,1071,1065,1056,1043,1032,1019,1005,990,979,970,960,952,947,946,943,941,939,938,939,941,943,943,941,941,942,942,941,940,942,947,952,957,963,970,977,984,988,988,986,984,983,982,983,988,996,1006,1010,1013,1012,1010,1007,1007,1007,1009,1012,1013,1011,1010,1010,1011,1012,1013,1013,1014,1016,1019,1023,1027,1030,1032,1034,1037,1041,1043,1043,1042,1040,1038,1037,1036,1034,1031,1027,1024,1021,1017,1013,1009,1005,1000,993,982,968,954,939,924,909,894,882,869,858,849,844,840,836,831,822,813,806,799,791,784,778,770,762,755,749,743,735,729,722,719,716,715,715,715,713,713,709,703,698,696,694,693,691,689,688,686,686,687,686,683,681,680,680,679,680,681,681,680,680,680,680,681,682,684,686,688,689,691,694,696,698,701,704,706,707,707,709,710,711,710,709,707,705,702,699,694,688,680,671,663,656,649,642,634,629,625,622,620,616,613,610,607,604,602,601,599,598,594,590,583,576,570,566,563,559,556,554,550,545,539,534,530,525,519,515,508,499,487,473,458,444,432,423,417,413,410,407,403,398,393,391,392,393,393
1052,1054,1058,1064,1068,1066,1061,1058,1056,1057,1060,1064,1066,1066,1062,1055,1044,1034,1022,1009,994,982,972,965,959,953,948,946,945,942,940,939,939,937,938,937,936,936,937,938,938,938,942,947,953,957,962,968,975,981,985,984,982,979,977,977,978,983,991,998,1000,1000,998,998,997,1000,1002,1004,1006,1006,1005,1004,1004,1004,1004,1004,1004,1006,1009,1013,1018,1022,1025,1028,1030,1032,1034,1034,1031,1028,1026,1025,1023,1019,1014,1011,1007,1004,1002,1000,997,993,988,979,969,959,948,934,920,906,893,878,861,845,833,825,819,817,811,803,794,787,782,777,768,760,753,746,740,733,727,722,716,712,708,708,707,706,704,703,699,696,692,688,683,681,680,678,677,675,676,676,676,675,674,671,669,669,669,669,669,669,669,669,669,670,671,674,675,677,678,678,680,682,684,686,689,692,695,697,697,696,697,698,699,699,697,695,692,689,685,678,670,662,653,648,644,638,633,627,621,617,615,614,611,609,607,604,602,601,600,599,597,594,589,584,579,573,567,563,556,552,549,545,540,535,529,524,519,515,512,506,497,487,474,463,450,436,424,416,411,407,403,399,395,392,392,394,395,395
1047,1051,1055,1057,1058,1054,1050,1048,1047,1047,1049,1052,1055,1055,1051,1044,1035,1024,1012,998,984,973,966,960,954,949,947,947,948,948,948,947,945,942,937,933,931,932,935,936,938,939,943,947,952,955,960,966,973,980,981,978,974,970,968,968,970,975,983,989,991,989,987,988,990,994,998,1001,1003,1004,1003,1002,1002,1000,998,995,995,998,1001,1004,1009,1014,1018,1020,1021,1021,1020,1019,1015,1012,1009,1007,1004,998,994,990,987,984,982,980,976,969,960,952,944,937,929,920,909,898,885,868,849,831,816,803,792,785,779,771,765,759,756,753,745,737,730,724,719,714,709,705,700,698,696,696,696,695,692,688,684,681,678,675,673,670,668,666,665,664,665,666,667,666,664,662,661,661,661,661,661,660,660,661,662,663,664,666,667,668,668,668,669,672,675,679,683,686,688,688,687,686,686,686,687,686,684,681,677,673,667,660,651,643,637,633,632,629,625,620,615,610,608,607,606,605,604,602,600,598,597,595,592,590,586,582,578,573,565,557,550,545,542,538,534,529,523,517,512,509,504,498,489,482,473,465,452,438,424,415,410,405,401,397,394,392,393,395,397,396
1041,1049,1051,1047,1044,1040,1037,1037,1037,1037,1039,1041,1043,1043,1040,1033,1023,1012,1001,989,979,972,967,960,954,949,947,949,952,955,957,958,956,952,945,939,933,932,931,935,939,944,946,948,950,952,957,964,971,976,974,966,960,955,953,954,957,963,970,976,977,976,975,979,983,989,995,998,999,1000,998,997,996,992,987,985,985,987,990,994,999,1004,1007,1008,1008,1006,1004,1001,996,993,990,986,982,977,973,970,967,963,959,954,948,940,931,925,922,919,916,910,901,888,873,854,834,813,794,776,764,752,747,743,739,734,731,729,724,718,712,706,702,698,694,690,687,684,683,683,681,680,677,674,670,669,667,666,663,661,659,657,655,655,656,657,657,656,655,655,655,654,654,654,654,653,653,654,655,656,657,657,657,658,659,659,660,662,665,669,673,676,677,677,677,676,676,676,675,674,670,666,660,654,648,642,635,629,624,622,621,620,618,614,608,604,602,601,601,601,601,599,598,596,594,592,589,587,583,579,573,566,558,550,543,537,533,529,525,520,516,511,506,501,495,489,483,478,472,465,454,439,425,415,409,405,401,396,393,393,394,396,397,397
1020,1030,1032,1031,1027,1023,1020,1021,1023,1024,1025,1026,1028,1030,1027,1019,1009,999,990,984,980,978,974,968,960,953,949,951,957,961,964,964,963,962,958,951,945,938,931,928,935,936,940,945,945,945,949,955,959,959,953,943,935,935,936,939,943,948,954,960,962,963,964,967,973,979,985,988,989,986,982,980,978,976,973,971,972,975,979,982,986,988,989,991,991,990,987,983,977,972,969,966,961,956,952,948,942,936,930,925,919,914,909,907,906,905,903,897,885,866,847,825,804,781,763,746,737,729,724,720,716,712,709,708,706,700,695,689,686,683,680,678,676,673,671,670,667,664,662,662,661,660,660,660,657,654,652,650,649,648,649,649,648,649,649,648,648,648,648,648,648,648,648,648,649,649,649,649,649,650,651,652,652,654,657,660,662,664,666,666,666,665,664,662,659,657,653,647,641,636,631,627,622,617,614,611,609,609,607,605,601,600,598,597,596,596,596,596,595,594,592,590,587,584,578,572,565,557,549,543,536,530,525,521,517,513,509,504,500,495,490,485,480,477,473,466,455,440,426,417,411,406,401,396,393,393,395,396,396,396
986,997,1003,1009,1007,1003,1000,1000,1003,1005,1006,1008,1010,1010,1006,1000,995,991,987,985,984,982,979,972,964,955,949,950,956,962,966,968,968,968,966,961,958,953,945,937,928,917,918,919,917,919,919,923,926,924,913,910,908,913,919,924,928,931,936,942,945,948,949,952,957,962,967,969,967,962,957,956,955,955,958,959,961,963,966,967,968,967,969,971,970,968,965,959,953,948,944,940,934,931,927,923,917,909,903,899,898,897,894,891,888,885,882,876,862,840,817,792,767,744,729,720,715,709,705,700,696,693,691,690,689,686,681,677,674,672,670,668,666,663,662,660,657,655,653,653,653,653,654,653,651,648,646,645,643,642,642,642,643,643,644,643,642,642,643,643,643,642,643,643,644,645,645,644,643,643,644,645,646,648,650,651,653,654,655,655,654,652,649,645,641,637,633,629,624,621,618,616,612,609,605,601,598,596,595,594,593,593,593,592,592,591,592,593,592,592,590,588,584,579,571,563,555,548,541,536,530,525,520,515,510,506,502,499,495,491,486,483,479,475,471,464,453,439,427,419,415,410,404,398,394,395,396,397,397,397
952,964,974,979,980,978,977,978,980,982,983,985,989,993,992,986,980,978,977,976,975,975,974,970,964,957,950,949,952,958,963,969,973,975,974,971,968,964,959,954,945,933,919,905,893,888,880,881,877,875,873,876,882,889,896,900,902,904,909,914,919,924,926,928,931,936,939,938,933,929,927,928,930,934,941,945,946,947,947,946,944,944,946,947,944,941,936,931,925,920,916,910,905,902,900,897,891,885,880,879,881,881,878,874,870,865,857,847,830,807,781,757,735,715,705,699,697,694,691,687,683,680,678,677,677,675,672,669,666,664,662,660,658,656,654,653,652,650,649,649,649,648,647,646,645,642,641,640,639,639,638,638,639,639,640,640,639,639,639,639,639,638,638,639,639,640,641,639,638,636,637,638,640,642,643,643,644,645,646,644,641,638,634,631,626,622,617,613,610,609,609,608,605,601,597,593,590,589,587,584,585,585,586,587,587,587,588,588,589,588,587,584,579,571,562,554,546,540,534,530,525,520,514,509,505,501,498,495,492,488,484,480,475,470,464,456,447,437,428,421,417,412,405,399,395,396,397,398,397,397
924,939,948,954,957,957,955,955,955,957,959,961,963,963,959,955,955,957,959,958,959,961,963,964,960,953,948,947,950,955,961,967,973,977,978,976,972,968,965,961,954,947,934,919,904,894,877,860,847,841,843,845,848,854,858,862,865,867,871,876,883,890,894,896,898,902,904,903,898,896,896,898,902,907,915,920,921,922,922,921,918,919,920,921,918,913,909,906,902,900,897,894,891,888,884,878,871,864,860,859,860,860,858,855,849,841,827,809,787,763,740,720,706,695,689,685,682,680,678,676,673,671,669,668,667,666,664,663,662,660,658,655,653,652,651,650,650,650,649,649,649,648,646,645,643,641,639,638,637,637,636,636,637,638,639,639,638,637,637,637,637,636,636,636,636,637,637,636,634,632,631,633,635,636,636,636,636,636,635,633,631,627,623,618,613,609,606,604,600,600,602,602,599,594,591,587,586,585,583,580,578,578,580,582,583,584,584,585,584,582,579,576,569,561,552,544,537,533,528,524,519,513,508,504,501,498,495,492,488,484,480,475,470,464,457,450,441,433,426,419,414,409,403,397,395,396,397,398,397,397
893,910,918,922,922,921,917,915,917,921,925,924,916,902,892,893,901,910,918,926,933,940,946,947,946,943,941,941,945,949,955,962,969,973,975,972,969,964,960,955,951,943,933,921,907,890,869,848,829,819,818,818,820,822,823,826,828,828,831,836,844,852,858,861,864,867,870,872,870,868,866,867,870,876,881,886,888,891,892,893,891,892,894,895,895,893,891,891,890,888,887,886,884,880,872,862,852,843,838,836,834,832,829,825,817,804,785,767,745,725,707,694,688,682,679,675,672,669,668,667,666,665,663,662,660,659,658,658,657,656,654,652,651,650,650,650,651,652,652,651,651,650,650,648,645,642,639,637,636,636,636,636,637,638,639,639,638,637,636,636,636,635,634,634,633,634,634,633,632,631,629,629,630,630,630,629,628,627,626,623,619,615,611,607,603,600,597,595,594,594,595,595,592,588,587,586,584,581,579,576,574,573,574,577,578,580,581,581,580,576,571,565,559,551,543,536,530,525,521,517,513,507,503,499,496,494,492,488,483,478,475,470,464,457,451,444,437,430,422,416,411,406,400,396,395,396,397,398,397,397
848,858,863,863,857,852,847,844,848,856,862,859,846,832,824,828,841,853,863,873,885,896,907,917,923,926,930,932,934,938,944,952,962,968,972,970,966,959,953,939,929,918,905,893,879,861,843,827,810,800,794,794,799,800,799,799,799,799,800,804,813,821,827,830,834,838,842,846,847,845,840,840,841,844,847,851,854,856,859,863,864,865,869,872,876,879,881,881,879,877,875,872,866,860,851,841,830,820,814,809,805,802,797,786,773,758,743,731,718,703,691,682,677,674,672,669,666,664,663,663,662,661,659,657,656,654,653,653,653,652,652,651,650,650,651,653,654,656,655,653,650,650,650,648,645,642,638,637,636,636,637,637,638,638,638,639,639,637,637,636,636,635,634,632,631,632,632,630,630,629,628,628,629,629,628,625,622,619,616,613,610,605,602,599,597,596,594,592,590,589,588,588,587,585,587,588,585,580,576,573,571,570,569,571,573,575,576,574,571,566,561,555,549,542,535,528,522,518,514,510,506,502,497,494,492,489,486,482,477,472,468,462,456,449,444,439,432,426,420,414,408,403,398,395,395,396,397,398,399,399
792,794,791,787,780,775,773,771,771,778,784,782,778,776,784,790,797,802,808,815,825,839,858,875,887,895,904,912,915,920,927,937,949,961,968,967,963,953,938,916,895,881,867,852,839,826,811,799,789,782,775,776,780,782,781,780,780,780,781,783,788,795,800,804,808,812,817,821,823,821,816,818,820,821,824,828,831,832,835,839,844,846,847,850,854,859,862,860,856,854,851,847,840,832,823,813,802,793,787,781,776,771,766,759,748,732,719,709,699,689,680,673,669,667,666,665,662,660,659,660,660,658,656,654,652,651,651,651,650,650,651,651,651,652,654,656,657,657,655,652,649,648,647,646,644,642,639,638,638,639,640,640,639,638,638,638,638,636,634,634,635,635,634,632,631,630,630,628,627,626,626,626,628,629,627,622,616,612,609,606,603,600,598,597,596,595,594,591,588,585,583,581,581,581,583,584,582,578,574,571,569,567,567,566,567,567,568,565,561,556,551,546,540,533,526,520,515,512,508,505,501,497,493,489,486,483,479,475,471,466,460,454,447,442,437,433,428,425,421,416,410,404,398,395,394,396,398,399,400,400
741,738,735,731,730,729,727,727,730,735,740,742,745,752,760,767,772,776,782,787,793,801,812,822,832,843,857,870,881,888,894,903,917,931,939,941,935,922,906,884,863,841,827,817,807,797,787,780,773,768,763,762,764,766,766,766,766,767,768,770,773,777,779,782,786,789,794,798,800,800,796,799,804,807,811,816,819,817,817,818,821,823,824,825,829,834,837,835,829,824,819,814,807,800,791,782,774,768,763,759,756,752,747,739,726,711,698,689,682,676,671,666,664,662,661,661,660,659,657,657,656,655,653,651,650,650,650,650,650,651,652,653,654,656,658,658,658,657,656,653,650,649,648,647,646,645,643,642,643,645,644,643,642,639,638,636,634,632,630,630,632,633,633,631,629,628,627,627,625,622,622,624,626,627,623,618,612,609,606,604,602,601,599,598,596,594,592,590,586,582,579,577,576,577,578,578,577,575,572,569,566,565,563,562,561,560,559,555,552,547,542,537,530,524,518,513,509,506,503,500,496,492,488,484,480,477,473,469,465,459,453,447,442,437,434,430,427,425,423,419,414,407,400,395,394,396,398,400,400,401
717,712,708,706,705,705,705,707,710,713,715,718,723,729,737,744,750,756,762,765,768,774,781,789,798,806,812,818,828,835,842,851,862,874,883,887,883,872,854,840,828,814,803,793,783,777,771,769,765,762,756,752,751,754,755,756,756,756,757,759,761,763,764,766,769,772,776,780,784,785,780,782,785,788,793,796,797,795,793,793,796,799,800,802,804,804,801,797,792,787,781,776,772,767,763,759,755,749,743,738,734,729,721,712,702,693,684,676,671,667,665,663,661,660,659,659,659,659,658,656,654,653,651,650,650,650,650,651,651,652,653,655,658,660,661,660,660,660,661,660,657,654,653,652,652,650,648,649,650,651,649,647,645,642,639,636,634,632,630,629,628,628,627,625,622,619,619,622,623,621,618,618,619,618,614,611,609,607,604,602,602,603,602,598,594,590,588,585,582,578,576,574,574,574,574,574,574,572,569,567,564,561,559,556,555,553,551,548,544,539,533,527,521,516,512,509,505,502,499,496,492,488,483,479,475,470,467,463,459,454,449,444,439,435,432,429,427,425,423,418,412,406,400,395,394,396,399,401,401,401
706,701,698,697,697,696,696,697,699,701,704,706,708,712,716,722,727,733,738,742,745,750,755,760,767,774,780,785,789,794,799,806,813,820,824,827,826,820,813,805,798,789,780,771,762,758,756,757,757,754,749,743,740,742,743,744,744,744,745,747,749,751,752,753,755,758,762,765,769,771,765,764,764,767,771,774,775,773,771,771,772,775,775,775,775,770,763,758,755,752,748,745,742,740,739,735,730,725,719,714,709,704,696,689,685,681,676,670,666,663,662,660,659,658,657,657,658,658,657,654,652,651,650,650,650,650,651,652,653,653,655,658,662,666,666,667,668,670,671,671,669,667,665,662,660,656,655,656,656,656,653,650,646,644,642,641,639,636,632,630,628,626,624,622,617,612,607,606,608,610,612,611,607,604,601,598,596,595,597,598,599,599,597,594,589,586,583,581,578,576,575,573,573,573,573,572,570,568,566,563,561,558,555,551,548,545,543,541,536,530,524,519,514,511,508,505,502,499,496,493,489,484,479,474,469,465,461,457,453,449,445,441,436,433,430,428,427,425,422,418,411,405,399,395,395,397,399,400,401,402
699,696,696,696,695,695,696,696,696,696,697,698,699,699,701,703,707,712,716,720,724,729,733,737,743,750,757,763,767,770,775,780,784,786,788,790,791,788,783,777,772,765,757,750,743,740,740,743,745,743,738,732,730,729,729,729,730,731,733,735,737,739,740,741,742,744,747,750,753,755,750,747,745,747,751,753,754,753,751,749,750,751,751,749,745,739,730,724,723,723,722,721,720,718,716,711,705,699,694,691,687,683,680,678,677,674,670,667,664,662,660,659,658,657,657,656,656,656,655,653,651,651,651,651,651,651,652,654,656,657,659,664,669,673,675,677,679,681,683,684,684,684,681,675,669,663,661,662,661,659,656,652,648,647,646,646,644,641,636,633,630,631,631,631,627,622,616,610,607,605,603,598,595,592,590,589,587,586,589,596,601,601,598,595,592,590,588,587,584,581,577,573,570,569,569,567,565,563,562,560,557,555,551,546,541,537,534,531,528,523,518,514,510,508,505,502,497,494,492,489,485,481,475,470,465,461,456,452,448,443,440,437,434,432,430,428,427,425,423,419,412,404,398,396,395,397,398,400,402,403
696,696,696,696,696,696,696,696,695,696,696,696,696,696,696,696,696,698,701,705,709,713,716,720,727,733,739,744,749,753,756,760,762,764,765,766,767,765,759,753,748,742,736,730,725,723,724,726,727,727,723,719,717,716,715,715,716,718,720,722,724,726,728,729,729,730,732,734,739,741,735,730,727,728,731,731,731,730,729,727,727,728,728,724,719,714,708,704,703,702,702,702,700,697,694,690,686,683,680,678,678,677,675,674,673,671,668,665,663,660,659,658,657,657,656,655,654,654,653,652,651,651,652,653,653,654,655,657,659,662,665,672,679,684,686,688,690,693,695,697,698,698,695,688,680,673,669,668,665,663,660,656,652,652,653,653,651,647,641,636,633,635,636,637,635,631,626,621,619,616,611,606,600,598,597,596,594,590,588,589,595,598,597,595,593,591,589,587,583,579,574,569,565,564,563,562,560,558,557,555,553,550,547,542,535,529,524,522,521,518,513,508,504,502,498,493,489,485,484,483,480,478,473,468,462,457,453,448,443,439,437,435,432,431,430,429,428,426,424,418,409,401,397,396,396,397,399,401,402,403
696,696,696,696,696,696,696,696,696,696,696,696,696,696,696,696,696,696,696,698,701,702,704,708,713,719,724,729,733,736,739,741,742,742,743,744,745,743,738,733,728,722,717,713,710,709,709,709,710,710,708,706,704,704,703,703,705,707,709,711,712,714,716,717,717,718,718,719,722,723,718,713,711,713,715,714,712,710,708,706,705,704,702,699,696,694,692,690,689,689,688,687,685,682,678,675,674,674,673,673,673,673,672,671,670,668,666,664,662,660,659,658,657,657,656,655,654,653,653,653,653,653,654,655,657,658,660,662,664,668,672,680,688,694,697,699,700,702,703,704,704,702,698,692,687,683,681,679,676,671,666,660,658,659,660,659,656,652,646,640,638,640,642,643,641,637,633,629,626,623,620,616,613,609,606,603,601,598,594,589,589,590,591,591,590,589,587,584,580,575,570,565,560,558,558,556,555,553,552,549,547,544,540,535,529,522,517,515,514,512,508,502,496,492,489,484,480,476,475,474,472,471,468,463,457,453,452,448,443,438,436,434,432,431,429,428,427,425,421,411,402,397,396,396,397,398,400,402,403,404
696,696,696,696,696,696,696,696,696,696,696,696,696,696,696,696,696,696,696,695,696,696,698,701,704,708,712,717,721,722,724,726,727,728,729,728,727,725,721,716,711,707,703,701,699,698,698,697,697,698,697,696,695,696,696,697,698,700,701,702,703,704,706,706,707,707,708,708,709,708,704,702,702,703,703,701,699,697,694,692,690,689,687,687,685,684,683,681,680,680,679,679,676,672,669,667,667,667,668,668,669,669,669,668,668,666,665,664,662,661,660,658,657,656,656,656,655,655,656,656,656,656,657,658,659,660,663,666,670,674,680,688,696,703,706,707,706,706,706,705,703,701,698,695,695,696,697,694,690,683,676,668,666,667,667,666,663,658,652,647,645,647,649,648,645,641,637,633,630,628,625,621,618,616,613,608,604,603,600,595,588,584,582,582,583,584,582,579,575,571,566,561,556,553,552,551,551,549,547,542,538,532,528,523,520,515,512,510,509,507,504,500,498,493,489,485,480,474,469,464,462,460,456,451,448,449,451,449,443,438,435,434,432,430,429,427,424,416,408,403,400,398,397,397,398,400,401,403,404,404
696,696,696,696,696,696,696,696,696,696,696,696,696,696,696,696,696,696,696,696,696,696,696,697,698,699,702,707,711,712,713,715,717,718,719,718,715,711,707,703,698,696,695,694,692,691,691,691,691,691,691,690,690,691,691,692,692,694,695,696,697,698,699,699,700,700,701,702,703,701,696,695,696,695,694,692,690,689,687,684,682,681,679,678,678,678,676,674,672,673,672,671,666,666,666,666,666,666,666,666,666,668,669,669,668,667,665,664,662,661,659,659,659,658,658,658,657,657,657,658,658,659,660,660,661,662,667,671,676,682,688,696,704,709,711,710,708,708,707,706,704,703,703,703,706,709,711,710,705,697,688,680,677,676,675,674,672,668,662,656,654,655,655,654,651,646,642,637,635,635,633,627,621,617,614,611,607,605,601,598,594,585,576,574,576,577,576,573,569,565,561,557,553,549,546,546,546,545,541,536,528,522,520,518,517,515,512,511,510,510,508,506,502,498,496,492,487,481,474,469,465,460,455,450,446,446,448,446,440,436,435,434,432,431,429,425,419,412,405,403,402,400,399,398,399,400,401,403,404,405
696,696,696,696,696,696,696,696,696,696,696,696,696,696,696,696,696,696,696,696,696,696,696,696,696,696,696,699,702,703,705,707,710,711,711,709,705,701,697,692,689,688,689,689,687,687,687,687,688,688,688,688,688,688,687,687,687,689,690,691,692,694,695,694,695,696,697,698,699,698,693,691,690,689,687,685,684,683,682,681,679,676,674,672,672,671,669,666,666,667,666,666,666,666,666,666,666,666,666,666,666,666,668,668,667,666,665,663,662,661,660,660,661,661,661,660,659,659,659,659,660,661,663,665,667,669,673,679,684,690,697,703,709,713,714,713,712,711,710,710,710,712,713,715,718,722,724,723,719,712,703,694,689,686,684,683,682,679,673,667,664,663,661,659,657,653,648,643,641,640,637,630,623,618,613,608,604,600,597,594,591,585,576,571,572,573,572,569,565,562,559,556,553,548,544,541,540,538,535,531,528,526,525,524,522,520,517,515,516,516,514,509,505,502,500,498,494,488,482,476,470,465,460,455,450,444,442,438,435,433,432,433,432,430,428,423,417,411,407,405,404,402,400,399,400,401,402,403,404,405
696,696,696,696,696,696,696,696,696,696,696,696,696,695,695,696,697,697,697,697,696,696,696,696,696,696,695,695,696,697,699,702,705,705,703,701,699,695,691,687,684,684,684,684,685,685,685,685,685,685,685,686,686,686,685,684,683,684,685,686,687,688,690,689,691,691,691,692,693,693,688,686,685,683,681,679,679,679,678,678,676,673,670,668,667,666,666,666,666,666,666,666,666,666,666,666,666,666,666,666,666,666,666,667,667,666,665,664,663,662,662,662,663,663,663,663,662,661,661,661,663,665,668,670,674,677,682,687,693,699,704,708,713,716,718,719,719,718,717,718,721,724,727,728,730,733,735,736,734,728,720,713,711,707,702,698,695,691,685,680,676,672,668,664,662,659,655,650,647,642,635,628,621,616,611,606,602,598,594,591,588,584,576,569,569,568,566,564,562,559,556,553,550,546,543,539,536,533,531,530,531,530,529,527,524,523,521,521,520,519,515,512,509,507,505,501,497,491,483,476,472,468,463,458,452,446,441,437,433,430,430,431,432,429,425,418,412,408,407,407,404,402,400,400,400,401,402,403,404,405
699,699,698,696,696,696,696,696,696,697,700,700,700,700,700,701,701,701,701,700,698,697,696,696,696,696,695,693,693,693,695,698,701,702,700,698,695,691,687,684,684,684,684,683,684,684,684,684,684,684,684,684,685,685,683,682,681,681,682,681,682,683,684,684,684,685,684,684,684,685,682,681,680,677,675,675,674,674,674,674,673,670,666,666,666,666,666,666,666,666,666,666,666,666,666,666,666,666,666,666,666,669,669,669,668,667,666,666,666,665,664,664,664,664,665,665,664,664,664,665,667,670,673,676,681,685,690,695,700,706,710,713,718,722,725,728,728,728,728,730,733,737,740,741,743,746,749,750,749,745,740,735,736,732,725,718,711,705,699,693,688,683,678,674,670,666,661,654,649,641,634,627,621,616,611,606,601,597,593,590,587,584,577,570,564,560,558,557,555,553,550,547,544,542,540,537,535,532,531,531,531,531,530,528,527,527,527,527,526,522,519,517,516,513,508,502,496,490,483,478,475,471,467,460,454,449,444,440,435,431,428,429,428,425,419,413,409,407,407,406,404,402,400,400,401,402,402,403,404,405
704,704,703,703,703,702,701,701,702,705,707,707,706,706,706,706,706,706,705,704,703,702,701,699,697,696,695,694,692,691,692,695,699,700,699,697,693,688,684,684,684,684,684,684,684,684,684,684,684,684,683,683,683,683,682,681,680,679,679,679,679,680,680,679,679,678,678,677,676,676,675,675,674,672,671,670,670,669,668,667,667,666,666,666,666,666,666,666,666,666,666,666,666,666,666,666,666,666,666,667,669,671,672,672,672,670,669,669,669,669,667,666,666,667,668,668,668,668,669,670,672,675,678,681,685,690,695,700,705,710,714,719,724,729,734,738,740,740,741,744,747,750,754,756,759,762,764,765,766,765,762,759,757,753,745,736,728,720,712,705,699,694,689,684,679,673,667,658,650,643,635,628,622,616,611,606,602,597,593,589,586,583,579,573,566,561,559,558,555,552,550,547,544,542,541,539,537,535,534,533,532,532,531,531,531,532,533,533,531,528,526,525,523,518,511,504,497,491,486,482,479,476,470,463,456,451,447,443,439,435,430,426,423,420,416,414,411,409,407,406,404,402,401,400,401,402,403,404,405,406
711,713,714,714,714,714,713,713,714,715,716,716,714,712,712,713,713,713,713,713,712,710,707,704,701,699,698,697,694,690,690,693,697,698,696,693,689,684,684,684,684,684,684,684,684,684,684,684,684,684,683,682,683,684,685,684,682,680,679,678,678,678,678,677,677,676,674,672,671,671,669,669,668,667,667,667,667,666,666,666,666,666,666,666,666,666,666,666,666,666,666,666,666,666,666,666,666,666,666,668,671,673,675,676,676,675,674,673,672,671,671,670,670,671,672,673,673,673,674,676,677,678,681,685,690,694,699,704,710,715,721,727,733,739,745,750,753,754,756,759,762,766,769,773,777,779,781,782,783,783,781,778,774,769,762,753,744,735,726,718,711,705,699,693,687,680,672,662,653,645,638,630,623,616,611,606,602,597,593,589,585,582,579,576,572,570,568,564,559,555,553,550,548,545,543,541,539,538,537,535,533,534,534,535,536,537,539,539,538,536,534,532,527,520,513,506,501,497,492,488,484,478,471,464,458,455,453,450,446,442,437,432,428,428,427,423,416,410,407,406,404,403,401,400,401,402,403,404,406,407
726,725,726,726,725,724,724,724,725,725,725,725,723,721,720,721,721,722,722,721,718,714,712,710,707,704,702,701,696,685,688,690,692,692,691,688,684,684,684,684,684,684,684,684,684,684,684,684,684,685,684,683,685,688,690,689,686,684,683,681,680,679,679,678,677,676,673,670,669,669,666,666,666,666,666,666,666,666,666,666,666,666,666,666,666,666,666,666,666,666,666,666,666,666,666,666,666,666,666,669,673,676,678,679,680,679,678,677,676,675,675,676,676,676,677,678,678,679,680,680,681,683,686,689,695,700,706,712,718,724,730,737,745,752,758,762,766,769,772,776,779,783,786,789,793,795,797,798,799,799,797,794,789,784,777,769,760,750,739,730,722,716,709,702,693,684,675,665,655,647,641,634,627,621,615,608,603,598,595,591,587,583,579,575,573,573,571,567,562,558,555,553,551,548,546,543,541,540,539,538,537,538,539,540,541,542,544,544,543,542,539,535,528,521,515,510,507,503,498,494,488,480,471,463,459,457,456,452,448,445,441,437,434,432,431,429,424,418,411,406,405,404,403,401,401,402,404,405,407,408
741,740,740,739,738,737,737,736,735,735,735,734,732,730,729,729,729,729,728,727,725,722,720,718,715,712,709,705,700,694,685,687,688,685,684,684,684,684,684,684,684,684,684,684,684,684,684,684,684,686,687,688,689,690,691,690,688,687,687,685,683,682,681,679,679,676,673,669,668,668,666,666,666,666,666,666,666,666,666,666,666,666,666,666,666,666,666,666,666,666,666,666,666,666,666,669,670,671,671,673,676,679,681,682,682,682,682,681,681,681,681,681,682,683,684,684,684,684,684,684,685,688,692,696,701,707,714,721,728,734,741,750,758,766,772,777,782,786,790,793,796,798,800,802,806,809,812,813,813,813,811,807,802,797,791,785,776,765,752,741,731,723,714,705,695,685,676,665,656,650,646,641,635,628,622,615,608,603,599,595,591,585,580,576,573,571,569,567,563,559,557,555,553,550,547,545,543,543,544,545,546,546,546,546,547,547,547,547,546,544,541,536,531,525,520,516,512,508,503,498,492,482,473,464,459,456,454,450,447,445,442,438,435,432,429,425,421,415,410,406,405,405,405,403,402,403,404,405,407,408
758,757,757,754,752,751,750,750,748,746,745,744,742,739,738,737,736,735,734,732,731,730,728,725,723,720,715,710,702,695,690,685,685,687,686,684,684,684,684,684,684,684,684,684,685,684,684,684,685,687,690,692,693,693,692,691,691,690,690,689,687,685,684,681,680,676,672,669,668,668,666,666,666,666,666,666,666,666,666,666,666,666,666,666,666,666,666,666,666,666,666,666,668,670,672,674,675,676,677,679,680,682,684,685,685,685,685,686,686,687,688,687,688,688,690,690,690,690,690,690,692,696,701,705,710,717,724,731,738,745,752,762,773,782,788,792,798,803,807,809,810,810,811,814,818,823,826,828,828,826,823,820,815,810,805,798,789,776,762,749,737,726,716,707,697,689,681,672,661,654,650,645,639,632,625,618,612,607,604,600,595,589,583,580,577,574,571,568,565,562,560,558,556,553,551,549,549,551,554,556,557,555,553,552,552,551,550,548,546,544,541,538,535,531,527,523,518,513,507,501,495,485,475,466,461,456,451,447,444,442,440,436,432,428,424,419,414,412,409,407,405,405,405,403,403,404,404,406,407,409
775,774,773,770,767,764,763,764,763,760,760,760,756,752,748,745,744,742,740,739,739,738,736,734,731,728,722,715,706,698,693,691,691,689,687,684,684,684,684,684,684,685,685,686,686,686,686,686,687,689,692,695,697,697,696,696,695,694,694,693,692,690,687,684,682,678,673,670,668,666,666,666,666,666,666,666,666,666,666,666,666,666,666,666,666,666,666,666,666,666,666,670,674,678,680,680,680,680,682,684,686,687,688,689,689,689,690,693,695,696,696,696,696,695,696,697,697,698,698,698,701,706,711,717,723,729,735,742,749,756,764,775,787,796,803,807,812,816,819,820,821,821,822,827,832,837,840,841,842,841,838,834,830,825,818,810,797,783,768,753,739,727,717,710,704,696,687,674,665,658,652,647,640,634,628,622,617,612,607,603,598,592,587,583,579,574,570,568,566,564,562,560,558,557,556,556,558,560,562,563,563,561,559,557,556,554,552,549,546,544,542,541,540,538,534,530,523,516,510,504,498,488,478,469,463,457,451,445,442,439,437,432,427,424,420,415,411,410,409,407,405,405,404,404,404,404,406,407,408,409
791,789,787,785,781,778,777,777,777,775,777,777,773,767,762,756,753,751,749,749,749,747,745,743,740,736,729,721,712,704,699,697,694,690,687,686,686,685,685,685,686,687,688,688,688,688,689,690,691,693,696,699,701,703,704,703,701,701,701,701,702,702,698,689,683,677,673,671,669,666,666,666,666,666,666,666,666,666,666,666,666,666,666,666,666,666,666,666,666,666,670,675,679,682,685,685,685,685,687,689,691,693,695,695,695,697,699,703,705,706,706,707,706,705,705,707,708,709,709,710,713,717,723,730,736,742,748,754,760,768,777,789,800,809,815,819,822,825,826,828,829,831,834,839,844,849,853,856,859,860,856,851,845,837,828,816,801,785,768,753,739,727,718,712,707,698,687,675,668,661,655,648,641,635,630,625,621,616,611,606,599,593,589,585,580,575,570,568,566,565,563,562,562,562,562,563,565,567,568,567,566,564,561,560,558,556,553,550,548,546,547,548,547,544,540,534,526,519,513,507,501,492,482,472,465,460,454,447,442,438,434,429,426,423,420,415,412,411,409,406,405,404,404,404,404,405,407,409,410,411
805,804,802,799,796,794,793,792,792,791,792,792,790,785,780,773,768,764,760,758,756,755,753,751,748,743,736,728,720,713,710,706,700,693,689,688,688,687,687,687,689,691,691,691,691,692,693,694,696,699,703,706,709,711,712,710,709,709,710,712,715,716,710,697,688,680,676,672,669,666,666,666,666,666,666,666,666,666,666,666,666,666,666,666,666,666,666,666,666,666,672,679,683,686,687,688,690,692,695,697,699,702,703,704,705,707,710,713,716,717,717,718,717,716,716,718,720,721,722,724,727,732,738,744,751,757,762,768,775,783,793,803,813,821,826,830,831,832,833,834,836,839,844,850,856,862,871,878,880,878,873,865,856,846,832,816,799,781,765,749,737,727,719,711,704,695,686,677,670,664,657,650,643,637,632,628,625,620,615,608,601,595,590,586,581,577,573,569,567,566,565,566,567,568,568,569,570,570,571,571,570,567,564,561,559,557,555,554,553,553,554,555,553,549,545,538,531,524,518,511,503,495,485,474,466,463,459,452,443,436,433,430,427,425,422,417,411,408,406,405,404,403,403,404,405,406,407,409,411,412
824,823,819,814,809,808,808,809,808,807,806,805,803,801,797,793,788,783,777,771,767,764,761,758,755,750,743,736,728,721,717,712,705,698,694,692,691,690,690,691,694,696,697,696,695,696,697,699,702,706,709,712,715,718,718,717,716,717,719,723,727,725,716,704,694,686,680,674,670,667,666,666,666,666,666,666,666,666,666,666,666,666,666,666,666,666,668,669,669,669,674,682,687,691,693,696,699,703,707,708,711,713,715,717,719,720,722,724,727,729,729,729,728,728,729,731,733,735,736,738,743,749,755,761,767,772,777,784,792,801,810,819,826,832,837,840,840,841,841,843,845,851,857,864,872,881,890,897,898,893,885,875,863,849,831,811,793,775,759,745,734,725,717,710,701,694,688,681,674,668,661,654,648,642,636,631,626,620,615,610,603,597,592,589,585,581,577,573,570,568,567,569,571,572,572,572,572,572,573,574,574,572,568,564,562,560,559,560,561,561,560,559,556,552,548,542,535,529,522,514,505,497,488,478,467,461,457,450,442,436,432,430,429,428,425,419,412,407,406,405,404,403,402,404,405,406,407,409,411,412
845,843,839,831,825,824,825,826,825,824,822,819,818,816,814,811,809,805,799,790,781,775,771,767,763,758,753,746,738,730,722,715,708,703,699,697,696,696,697,698,700,701,701,701,701,702,704,706,708,711,714,717,720,723,724,724,723,723,727,733,736,731,721,709,699,691,683,676,670,667,666,666,666,666,666,666,666,666,666,666,666,666,665,666,667,669,671,673,674,675,680,686,693,698,703,707,712,716,720,721,724,727,730,733,734,734,735,737,741,743,743,744,744,743,745,749,751,752,753,755,761,767,772,778,783,787,793,801,810,819,827,834,840,845,849,852,853,854,856,858,864,871,877,885,893,902,909,912,910,903,892,879,864,848,826,804,784,768,754,742,732,724,717,709,701,696,692,684,679,673,666,659,653,647,641,635,628,622,617,611,605,599,595,593,591,588,585,581,576,573,571,570,571,572,573,573,574,574,575,575,576,575,572,569,567,565,565,567,568,567,564,561,559,556,552,546,539,532,526,518,510,503,494,483,472,463,457,452,445,439,435,433,432,431,429,423,414,407,405,405,405,405,407,406,405,406,408,410,411,412
867,863,860,851,845,843,844,844,844,842,839,838,837,836,834,831,830,828,822,814,806,797,787,779,774,771,768,764,756,743,731,720,713,709,707,705,704,704,704,704,705,705,706,707,709,711,713,714,716,717,719,722,725,728,730,730,728,729,735,740,743,736,726,714,704,695,686,678,672,669,667,667,667,667,668,666,666,666,666,666,666,666,667,668,671,673,675,678,681,685,690,697,705,711,716,720,725,730,734,736,739,743,747,749,750,750,752,755,757,759,761,763,763,761,763,767,770,770,771,773,778,783,788,793,798,803,810,819,828,837,843,849,855,860,865,868,870,872,876,881,888,894,900,907,914,921,925,926,920,907,892,877,859,839,815,793,775,761,748,738,730,723,716,709,703,699,695,688,682,677,672,665,658,650,644,637,630,625,619,613,607,601,598,596,594,592,590,587,583,579,576,573,572,573,575,576,577,579,579,579,579,578,577,574,573,572,572,573,572,569,565,563,562,561,557,549,542,536,531,524,516,507,498,488,477,467,461,456,450,444,439,436,433,431,430,426,418,410,406,403,406,412,418,417,411,409,409,410,411,412
890,884,880,873,868,865,865,866,867,865,861,859,859,859,856,852,852,851,846,840,833,825,814,804,796,791,787,784,776,763,747,733,724,720,717,715,713,713,712,712,711,712,713,716,721,724,726,727,728,729,730,732,733,735,735,735,734,736,742,747,751,744,733,721,711,701,691,681,676,673,671,669,669,671,672,670,668,666,666,666,666,666,672,675,678,680,683,687,691,695,702,711,720,726,730,734,739,744,748,751,755,759,764,765,766,767,770,773,776,777,780,783,782,780,781,783,786,786,788,790,793,797,801,807,813,820,829,838,848,855,861,867,873,879,883,887,890,894,899,906,912,917,922,929,937,940,938,931,918,901,884,868,847,826,803,782,765,752,742,734,727,721,715,710,705,701,697,691,685,680,675,668,660,652,644,637,631,625,619,613,607,602,600,598,597,595,593,590,588,584,580,576,575,575,577,579,581,582,583,584,584,583,580,578,577,577,577,576,573,568,564,562,562,562,559,553,545,539,533,527,519,510,500,491,481,471,464,458,453,447,441,437,433,431,429,426,419,411,406,405,412,420,427,427,420,414,411,411,411,413
916,910,907,905,900,895,893,894,894,891,889,887,885,882,877,872,871,870,867,862,857,852,842,832,823,815,808,802,796,786,772,757,743,735,729,726,723,722,721,721,722,723,725,729,734,737,739,741,743,745,746,746,745,744,742,742,743,745,750,754,755,750,743,733,723,711,700,690,683,680,678,676,674,675,676,675,671,666,666,669,671,676,683,689,691,692,694,699,703,707,712,720,729,738,744,748,752,756,761,766,771,775,779,781,782,784,788,792,794,796,798,800,799,797,798,800,802,802,803,805,807,810,815,821,830,839,849,859,868,875,881,888,894,899,904,909,915,919,924,930,935,940,946,952,953,948,937,924,907,889,872,853,830,810,789,771,756,744,736,729,724,719,714,709,705,701,697,691,686,681,674,667,660,653,645,638,631,626,620,614,609,605,603,602,600,598,596,593,591,588,585,581,578,578,580,581,582,583,585,586,586,585,582,580,579,579,579,576,572,566,562,560,560,558,557,553,546,539,533,527,519,510,502,493,484,474,465,458,453,448,442,437,433,431,428,424,417,410,407,411,419,426,429,429,428,422,415,412,412,413
947,947,948,948,942,938,934,929,924,922,924,924,917,908,897,890,888,887,884,880,877,875,870,860,850,839,831,823,818,812,804,792,779,765,751,742,736,734,733,733,734,736,739,743,748,751,753,755,757,760,762,761,759,757,755,756,758,761,764,765,763,759,755,747,736,724,712,702,695,690,688,685,682,680,679,679,677,678,680,685,689,694,698,702,705,706,707,710,715,719,725,734,744,753,760,764,767,770,774,780,786,792,796,798,800,804,808,812,813,813,814,814,813,812,814,817,818,818,819,820,822,825,831,839,848,859,871,881,888,895,902,910,916,920,925,931,937,941,944,950,955,960,963,963,955,943,927,911,893,875,856,836,812,793,775,760,748,738,730,723,719,715,712,708,704,700,696,690,686,680,674,668,661,655,647,639,631,626,621,616,612,608,606,605,604,603,601,597,594,592,589,585,582,581,582,582,582,583,584,585,586,586,586,584,582,579,577,573,569,564,561,559,557,555,552,548,544,539,532,524,516,507,500,492,482,473,464,456,450,446,442,438,435,432,428,422,414,410,413,419,424,428,429,430,430,430,426,420,415,415
975,980,987,992,993,992,990,981,970,963,962,958,953,941,926,913,907,905,902,898,896,896,893,884,877,871,866,857,847,840,838,836,829,813,795,775,761,752,750,748,748,750,754,758,762,765,767,769,772,776,778,777,777,776,777,778,781,784,786,785,781,776,770,762,752,740,728,718,711,705,700,696,693,689,687,689,692,695,698,702,706,710,712,716,719,723,724,727,732,737,744,753,763,771,777,781,785,788,792,798,805,810,813,814,817,822,826,829,830,829,828,825,823,825,828,832,834,833,834,836,840,845,853,861,871,882,893,902,908,916,924,932,938,942,946,951,955,958,961,965,968,966,963,957,946,932,914,896,878,859,839,817,795,778,763,750,740,731,723,718,714,712,709,706,702,698,695,688,683,678,673,669,664,658,650,641,632,626,622,618,614,610,608,607,607,607,605,602,598,594,590,587,584,582,583,583,583,583,583,585,588,591,590,586,582,578,574,570,566,563,562,560,556,552,550,547,542,536,530,521,512,504,496,488,478,469,462,455,449,446,443,440,436,432,426,419,414,416,422,427,429,430,430,430,430,430,430,430,426,421
997,1005,1016,1027,1033,1034,1030,1022,1011,1002,995,989,983,976,964,947,935,927,920,916,914,915,912,907,903,901,898,890,877,866,863,862,859,853,840,817,793,775,770,768,768,768,770,774,778,780,783,787,790,794,796,796,797,800,801,803,805,808,809,808,803,796,787,779,770,760,750,742,734,727,723,719,715,713,714,716,717,718,719,721,723,726,729,734,740,744,747,751,757,762,768,776,785,793,798,801,803,806,811,817,823,826,828,829,832,839,844,847,847,844,840,837,835,838,842,846,849,849,851,856,863,870,878,887,896,906,916,923,929,937,946,953,958,962,966,970,972,973,974,971,967,959,951,943,931,917,900,883,864,843,821,799,779,765,753,741,732,724,717,713,710,708,706,703,700,696,693,687,683,680,675,670,663,655,647,640,632,626,621,618,615,612,609,607,608,608,607,605,601,596,592,587,584,583,583,584,586,586,585,585,589,593,591,585,580,577,573,569,565,563,560,557,552,550,549,546,539,532,526,518,509,501,492,483,475,467,462,457,452,448,444,441,437,430,424,420,419,422,428,430,431,431,430,430,430,430,430,430,430,429
1014,1027,1041,1052,1057,1057,1055,1050,1043,1036,1025,1014,1008,1004,996,981,967,954,942,935,933,933,932,929,927,926,925,916,903,892,889,888,884,881,873,852,825,804,797,797,795,792,792,795,798,799,803,807,811,815,818,818,820,822,824,825,828,830,830,827,822,814,805,797,788,781,775,769,762,756,753,749,745,745,748,749,748,748,748,747,748,750,755,760,764,767,771,776,782,787,792,799,808,814,818,820,822,825,830,835,840,842,842,843,847,854,860,863,861,855,851,848,848,851,856,861,866,869,873,879,887,896,904,914,924,932,938,944,950,959,967,973,977,981,982,982,980,976,972,964,955,945,936,926,912,897,881,867,850,828,804,783,764,752,741,732,724,717,712,708,706,704,702,701,699,696,692,687,683,679,673,667,659,650,641,635,631,626,622,619,617,614,611,608,607,607,607,606,604,601,597,590,583,578,577,580,583,583,581,582,585,588,586,582,579,576,573,569,565,560,555,551,548,547,546,542,536,529,523,515,506,497,488,481,474,468,463,459,453,448,443,439,434,428,422,420,423,427,430,431,431,431,430,430,429,430,430,430,430,431
1033,1048,1063,1071,1073,1074,1071,1068,1062,1059,1051,1040,1031,1026,1021,1010,994,979,966,957,954,955,954,951,948,947,945,938,927,920,917,914,909,905,897,881,860,844,837,835,828,822,819,821,823,825,828,831,834,838,841,842,842,843,844,846,848,849,847,844,839,833,825,820,812,805,801,797,791,786,783,780,776,776,778,780,781,780,779,779,779,780,784,788,791,792,795,801,806,810,814,821,830,835,835,836,837,841,847,852,856,856,855,853,856,864,871,872,867,861,856,858,861,865,871,878,884,890,895,902,911,921,932,943,951,955,959,964,971,978,985,989,990,990,986,981,974,966,957,947,937,927,917,905,890,874,859,845,829,809,787,767,750,740,730,722,715,710,707,704,702,700,699,699,697,694,690,686,682,677,672,664,655,645,637,632,629,625,622,619,617,615,611,608,606,605,604,603,603,601,595,586,577,572,571,573,575,576,574,575,578,580,579,577,574,571,568,564,560,555,549,546,545,544,541,537,533,528,522,512,502,493,486,480,474,468,462,457,452,446,441,438,432,426,421,422,426,430,432,431,431,431,431,430,430,430,430,430,430,430
1052,1071,1083,1089,1088,1086,1084,1081,1077,1077,1075,1065,1054,1046,1038,1027,1013,1000,988,981,978,979,977,972,968,965,963,960,954,947,941,936,931,925,917,906,893,882,878,872,861,851,847,848,851,852,854,855,859,863,866,867,866,866,866,866,868,869,866,863,859,855,850,845,838,832,828,825,820,815,811,808,804,804,805,808,808,808,808,809,810,811,814,818,821,822,824,829,833,836,839,843,848,851,850,849,850,854,860,864,867,868,866,863,865,873,877,875,869,864,863,867,874,881,888,894,900,908,916,925,935,947,959,969,973,976,979,984,990,994,996,996,991,986,978,970,960,949,938,927,918,908,895,881,865,850,836,822,806,788,769,751,737,729,721,715,709,706,702,700,698,697,697,698,697,693,690,685,681,676,671,664,655,646,639,633,628,624,621,619,617,615,611,608,606,604,602,600,599,596,588,580,572,568,567,567,568,568,568,568,568,568,568,567,565,562,559,556,552,548,544,542,541,540,537,533,530,526,519,509,499,492,485,478,470,464,458,453,448,444,441,437,432,426,423,425,429,432,434,433,432,432,432,432,431,431,430,429,429,430
1068,1086,1097,1100,1098,1097,1095,1093,1091,1093,1094,1087,1074,1061,1050,1039,1030,1023,1015,1007,1001,997,994,989,983,979,978,979,975,966,955,948,943,939,932,923,913,907,903,896,884,874,872,874,876,877,876,877,881,886,891,893,893,892,891,890,891,893,891,886,881,876,872,868,862,857,854,850,846,841,836,832,830,831,834,837,838,837,836,836,837,838,840,845,849,850,850,854,856,859,859,860,862,863,863,863,863,866,871,875,878,878,876,873,875,881,885,884,880,878,879,885,893,901,908,914,922,930,939,948,960,973,983,989,991,995,999,1002,1005,1004,998,992,983,974,964,953,942,930,919,908,898,888,875,858,841,826,812,798,783,766,751,737,726,720,713,708,703,700,697,695,694,694,696,698,697,694,691,687,682,678,672,665,658,651,644,637,630,624,620,618,616,613,610,609,607,604,602,599,595,590,581,574,568,565,563,563,563,563,562,561,560,559,559,558,556,554,551,548,545,543,540,538,537,536,533,530,526,521,516,510,502,494,486,476,467,462,458,453,448,444,442,439,433,428,427,429,433,435,436,435,434,433,433,433,433,432,430,430,430,430
1079,1097,1106,1107,1105,1106,1106,1106,1105,1107,1108,1103,1089,1073,1061,1054,1050,1046,1038,1029,1020,1014,1008,1001,995,993,994,996,991,977,963,955,950,946,941,934,927,921,916,905,896,891,890,891,893,893,893,894,897,903,909,915,917,918,915,914,914,916,915,910,902,893,888,884,881,878,875,872,868,863,858,854,853,857,862,865,865,865,864,865,866,865,867,870,871,871,870,871,873,874,875,875,876,877,876,875,876,879,884,887,889,889,887,885,887,892,897,897,895,898,902,909,918,926,934,942,950,957,964,973,984,996,1002,1004,1008,1012,1016,1015,1012,1005,995,985,972,960,948,936,924,912,900,888,878,867,854,837,819,803,788,773,759,745,734,724,716,711,706,701,697,694,692,690,691,694,697,700,699,697,694,690,686,683,676,668,660,655,649,640,630,622,618,616,614,611,609,608,607,605,602,598,591,583,576,569,565,562,559,559,558,559,558,557,556,555,554,552,549,547,544,541,540,539,537,534,532,531,529,525,522,518,514,510,504,495,485,475,467,462,459,455,451,447,445,439,433,429,431,433,436,437,438,437,436,435,434,434,433,432,431,431,430,430
1092,1108,1117,1118,1118,1118,1119,1119,1119,1119,1119,1113,1099,1083,1073,1069,1067,1066,1060,1048,1036,1027,1020,1012,1007,1006,1008,1007,998,985,971,961,955,950,946,939,934,928,922,912,904,900,900,901,903,904,905,906,909,914,920,928,934,938,937,935,934,934,932,925,915,904,897,893,891,890,890,888,885,880,875,870,871,875,877,880,883,885,886,887,888,889,890,891,889,887,884,883,884,885,885,887,888,888,888,887,889,892,896,899,902,902,902,901,904,910,914,916,919,923,928,935,944,952,960,968,976,983,990,998,1007,1016,1021,1024,1026,1026,1025,1018,1009,999,987,975,961,946,932,920,907,893,879,867,855,845,831,815,797,780,765,751,739,728,720,713,706,702,697,693,690,689,689,689,691,697,702,704,703,700,697,695,692,685,677,668,660,652,643,634,625,619,616,614,613,611,609,608,607,605,602,596,588,580,573,567,563,560,557,555,554,553,553,554,553,551,548,546,544,541,538,536,536,535,533,530,527,526,524,521,518,515,511,507,502,494,484,474,467,461,457,453,449,446,443,437,433,431,433,436,438,439,439,438,437,436,435,434,434,434,434,432,431,431
1106,1120,1131,1135,1136,1134,1133,1133,1132,1131,1127,1118,1106,1094,1087,1084,1083,1082,1077,1067,1056,1046,1036,1028,1023,1020,1019,1015,1005,992,979,968,960,953,947,941,937,933,928,918,910,906,905,907,910,912,913,914,916,920,927,935,943,949,952,951,949,947,942,934,923,912,904,899,897,897,898,898,896,892,886,882,882,884,886,889,892,894,896,896,898,900,901,902,901,898,896,895,895,896,896,897,899,899,900,902,904,907,910,913,916,918,919,921,926,930,934,938,943,948,953,960,968,977,984,992,1000,1009,1016,1023,1029,1036,1041,1042,1040,1032,1024,1015,1004,992,976,962,946,930,915,900,885,870,855,843,832,821,807,792,776,761,748,735,725,717,709,703,697,693,689,687,686,686,688,689,693,697,702,702,701,699,698,696,693,687,679,670,661,652,642,633,626,620,616,614,613,613,612,611,610,607,600,593,585,579,574,569,564,558,555,553,551,549,549,550,549,546,543,540,539,537,534,532,531,529,527,524,523,521,518,516,513,509,505,501,496,490,481,472,465,459,454,450,446,443,440,437,435,435,436,438,440,441,440,439,438,437,436,437,438,439,439,439,437,436
1122,1135,1146,1153,1154,1150,1147,1144,1140,1136,1130,1121,1112,1106,1101,1098,1097,1096,1094,1087,1077,1067,1058,1049,1043,1038,1030,1023,1012,999,986,974,964,956,949,943,941,938,933,924,915,910,910,913,917,920,921,922,924,927,933,941,949,955,960,962,960,955,949,941,930,920,912,907,904,903,904,905,904,901,895,891,891,892,894,897,900,901,902,903,904,907,909,910,910,909,908,908,909,909,909,910,911,914,917,919,922,925,929,931,933,935,939,944,950,954,957,961,966,971,977,984,992,1002,1010,1019,1028,1037,1042,1047,1049,1052,1051,1045,1037,1029,1020,1010,996,981,963,945,928,911,893,877,862,846,832,820,808,797,784,770,756,745,734,723,715,707,701,695,690,688,686,684,684,685,687,691,695,698,700,700,699,698,698,696,693,688,681,674,664,653,642,633,626,621,617,616,615,615,615,614,612,607,600,591,584,579,574,568,562,556,554,552,549,547,546,545,543,540,538,536,534,533,531,530,527,524,521,520,519,517,513,509,505,502,498,494,489,484,477,469,462,456,452,448,444,440,438,438,438,438,438,440,442,442,440,439,439,439,440,442,444,446,446,446,444,443
1141,1151,1159,1163,1163,1158,1153,1148,1143,1137,1130,1123,1119,1118,1115,1110,1108,1110,1111,1106,1097,1087,1078,1071,1064,1055,1043,1031,1020,1007,992,979,968,959,952,947,946,945,941,930,920,916,917,921,925,928,930,932,934,937,942,948,955,961,965,969,969,963,956,947,938,930,923,918,915,913,913,912,911,908,903,900,900,901,902,905,908,910,911,913,915,917,919,921,924,925,925,924,925,925,925,925,928,933,937,940,943,945,948,950,954,959,966,972,977,981,985,989,994,1000,1008,1014,1024,1034,1047,1056,1062,1066,1066,1066,1055,1048,1039,1034,1028,1022,1012,1000,984,966,947,926,907,888,870,854,841,827,814,801,789,776,764,752,742,732,722,713,706,699,694,690,686,685,685,684,683,686,691,697,700,701,702,701,700,699,697,695,693,690,683,674,663,651,640,632,625,620,618,617,616,616,614,613,611,606,597,589,583,576,569,563,558,553,551,550,548,546,544,542,539,537,535,533,531,529,528,526,523,519,517,515,513,511,506,501,498,495,493,489,485,480,475,469,462,457,453,449,444,440,438,439,439,439,440,441,442,442,441,441,441,443,446,449,451,451,451,451,450,449
1158,1165,1169,1169,1166,1161,1155,1150,1145,1138,1130,1125,1124,1124,1122,1117,1116,1120,1124,1122,1115,1106,1098,1091,1082,1070,1056,1042,1029,1015,999,984,974,964,956,953,954,954,947,937,928,925,927,930,935,938,942,945,948,951,955,960,964,968,974,979,982,977,969,959,950,942,936,932,930,928,927,925,922,917,913,911,911,912,914,916,919,922,925,929,933,936,937,940,944,946,946,944,945,946,947,948,953,960,966,971,974,979,982,986,993,1000,1005,1007,1009,1014,1019,1025,1031,1039,1047,1055,1061,1067,1075,1083,1087,1087,1076,1062,1044,1035,1030,1027,1022,1013,998,984,969,951,930,906,884,865,851,837,826,815,804,791,777,763,751,740,730,721,713,705,699,693,689,687,685,684,683,682,684,689,697,704,706,706,705,704,701,698,697,695,693,688,680,669,658,646,637,630,625,621,620,618,615,612,608,607,605,601,593,585,578,570,564,558,553,549,547,547,546,545,543,540,536,534,532,530,529,526,523,520,517,514,510,508,505,503,500,497,493,491,489,487,484,479,475,470,465,460,456,452,447,441,438,439,439,440,442,443,443,442,442,442,444,447,451,454,454,454,453,454,454,453
1173,1177,1177,1174,1170,1163,1156,1150,1143,1135,1128,1126,1127,1126,1124,1123,1124,1128,1133,1137,1134,1128,1121,1112,1100,1086,1071,1054,1038,1023,1008,995,983,971,962,960,961,959,951,943,936,934,936,940,945,950,956,961,965,968,970,972,976,981,990,999,1004,1000,989,975,964,956,950,948,947,946,945,942,938,932,926,924,925,926,928,930,933,938,945,953,957,960,963,965,967,968,969,969,971,974,978,979,983,989,995,1000,1005,1009,1011,1013,1017,1022,1027,1029,1032,1036,1040,1046,1052,1059,1066,1072,1078,1084,1090,1095,1091,1082,1064,1047,1034,1028,1024,1018,1009,996,980,965,952,936,914,890,866,850,839,829,819,809,798,785,771,756,743,731,721,712,704,698,693,689,686,685,683,682,682,682,685,692,701,707,709,708,708,705,699,695,694,691,688,682,674,665,654,644,637,633,630,626,623,619,613,606,602,600,598,595,588,580,572,567,561,556,551,548,546,545,544,542,539,536,533,530,528,527,525,522,518,514,510,507,503,499,496,495,494,492,489,486,484,481,478,475,471,469,467,463,456,450,443,439,439,441,441,441,442,443,443,443,444,445,448,451,454,455,455,455,454,456,458,459
1185,1187,1185,1178,1171,1164,1157,1150,1140,1131,1126,1128,1130,1131,1129,1128,1129,1132,1138,1146,1150,1149,1143,1133,1120,1106,1089,1070,1050,1033,1020,1009,996,982,972,970,968,963,957,951,945,943,944,949,955,962,970,977,982,987,989,992,997,1004,1013,1023,1030,1029,1015,998,981,972,966,964,965,966,965,961,955,948,941,938,940,942,947,953,958,966,975,984,988,991,994,996,997,997,999,1000,1001,1003,1006,1008,1011,1016,1021,1025,1027,1028,1028,1029,1031,1035,1037,1039,1041,1044,1049,1055,1061,1068,1073,1079,1085,1090,1091,1089,1076,1061,1045,1033,1024,1019,1014,1005,991,977,962,947,933,916,895,875,855,844,836,827,816,805,794,781,766,752,738,725,714,705,697,691,688,686,683,682,681,682,683,683,686,692,701,706,707,707,705,700,695,691,689,686,682,677,671,663,654,645,639,635,633,628,620,613,606,601,597,594,592,589,584,577,569,563,558,552,547,546,546,543,539,536,533,531,529,527,525,523,520,516,512,508,505,501,496,493,490,490,489,486,483,481,479,477,474,472,470,468,466,462,453,445,442,441,442,443,443,443,443,444,445,446,447,448,449,451,454,455,457,458,458,459,461,463
1195,1193,1188,1179,1172,1165,1158,1149,1138,1129,1128,1133,1136,1135,1132,1130,1131,1134,1143,1156,1166,1170,1166,1155,1141,1125,1107,1085,1064,1046,1034,1023,1010,995,985,981,977,969,964,959,955,952,953,958,965,973,984,996,1003,1011,1016,1020,1024,1031,1039,1047,1056,1057,1044,1025,1004,992,984,982,982,983,983,978,969,961,954,952,955,961,969,979,987,998,1008,1016,1021,1023,1026,1028,1029,1031,1031,1031,1030,1030,1030,1030,1032,1034,1035,1035,1034,1035,1035,1036,1039,1041,1043,1044,1047,1051,1057,1063,1068,1073,1078,1083,1089,1091,1085,1074,1060,1044,1031,1021,1014,1007,1000,988,973,958,943,928,912,894,876,860,849,841,835,825,814,803,791,777,763,748,734,721,709,700,691,686,683,682,681,680,682,684,685,685,688,693,699,703,704,702,698,694,690,688,686,682,677,672,665,658,650,644,640,637,633,626,616,607,601,596,591,588,585,583,578,572,565,559,554,549,545,544,542,539,534,530,526,525,524,521,518,516,513,509,506,504,500,496,491,489,487,486,484,481,479,476,475,474,472,471,468,465,459,453,449,444,444,445,445,445,445,444,446,447,448,449,450,450,451,452,454,456,459,461,462,463,464,466
1200,1195,1188,1181,1174,1168,1160,1149,1136,1132,1136,1142,1143,1140,1136,1133,1133,1140,1154,1169,1183,1189,1186,1176,1160,1142,1121,1098,1076,1058,1045,1035,1022,1007,998,993,986,976,970,966,964,961,962,967,975,986,1000,1016,1027,1037,1045,1048,1052,1057,1064,1071,1079,1078,1068,1049,1029,1014,1003,999,999,998,997,990,979,970,966,965,969,980,992,1003,1013,1024,1035,1042,1047,1051,1053,1055,1056,1055,1054,1051,1048,1047,1045,1044,1042,1041,1041,1040,1039,1040,1041,1042,1044,1047,1049,1050,1053,1058,1064,1070,1074,1078,1082,1086,1088,1084,1072,1059,1048,1036,1023,1011,1002,991,981,969,954,939,924,908,892,875,858,847,841,837,833,824,813,802,789,774,759,745,731,718,705,695,686,681,678,676,678,680,684,686,686,686,688,692,697,700,699,696,692,689,687,684,681,677,672,666,659,652,646,642,637,631,626,618,610,602,596,591,586,581,577,574,571,566,560,554,549,547,544,544,541,536,530,525,521,518,516,512,510,507,505,503,502,500,496,493,489,487,485,483,480,478,476,474,472,468,467,467,464,460,454,449,450,450,450,450,450,448,447,447,448,450,452,453,454,454,455,456,456,459,462,464,466,467,469,470
1203,1196,1190,1186,1180,1173,1162,1151,1140,1139,1146,1150,1149,1144,1140,1138,1141,1153,1170,1186,1199,1203,1199,1189,1173,1152,1128,1103,1080,1061,1048,1039,1029,1018,1010,1002,993,982,975,971,969,968,971,976,986,1002,1019,1038,1052,1064,1073,1077,1079,1082,1088,1094,1099,1095,1085,1067,1050,1034,1022,1015,1013,1012,1007,997,987,979,976,977,985,998,1011,1022,1031,1041,1050,1057,1063,1068,1071,1072,1071,1068,1065,1061,1057,1055,1053,1050,1047,1045,1044,1043,1043,1044,1046,1049,1052,1054,1056,1059,1062,1067,1071,1075,1079,1082,1085,1084,1079,1069,1058,1047,1038,1027,1014,1001,988,974,961,948,934,919,903,887,871,858,848,840,837,834,829,821,811,799,785,770,754,740,727,714,701,690,682,675,671,670,674,679,684,686,686,684,684,686,690,692,690,687,685,683,681,678,676,672,666,659,652,646,642,638,632,625,618,611,604,598,592,585,579,574,569,565,562,558,553,548,545,544,544,542,537,530,524,519,515,511,508,505,502,500,499,498,497,495,492,491,489,486,484,481,479,477,476,473,468,462,460,460,461,459,459,457,458,458,457,456,455,453,450,449,451,454,457,458,458,459,460,460,460,462,465,467,470,472,473,475
1207,1201,1195,1192,1186,1176,1163,1153,1148,1150,1155,1157,1154,1149,1146,1145,1152,1168,1186,1204,1216,1218,1211,1200,1183,1158,1130,1104,1080,1060,1048,1039,1030,1020,1014,1008,999,988,981,976,974,975,980,988,1003,1021,1042,1062,1080,1094,1103,1106,1107,1107,1111,1113,1114,1107,1095,1080,1063,1048,1034,1026,1023,1018,1012,1003,996,989,987,988,997,1009,1022,1032,1041,1049,1057,1065,1072,1077,1080,1079,1077,1073,1068,1065,1061,1059,1057,1055,1052,1051,1051,1052,1054,1055,1057,1059,1062,1064,1066,1067,1069,1072,1075,1078,1082,1084,1084,1076,1064,1053,1044,1035,1025,1013,1000,985,969,954,937,924,911,897,881,867,852,843,840,837,834,829,823,814,803,792,778,764,749,735,721,708,695,685,677,670,664,663,668,676,681,683,682,680,679,679,681,683,682,679,677,675,673,672,671,666,660,654,647,642,637,632,626,619,611,604,598,591,584,577,571,566,561,556,553,550,546,543,541,540,539,535,530,523,517,512,509,506,503,501,499,497,497,496,495,493,492,490,489,486,483,481,480,479,478,474,468,465,464,465,466,467,467,467,466,463,462,461,460,458,455,453,454,458,462,463,463,464,464,464,465,466,468,471,472,474,477,480
1212,1207,1202,1197,1187,1175,1163,1155,1155,1160,1165,1164,1160,1156,1155,1158,1169,1186,1204,1218,1225,1224,1217,1205,1184,1158,1129,1104,1081,1061,1046,1034,1026,1020,1017,1013,1004,994,985,980,980,983,993,1007,1023,1045,1066,1087,1107,1123,1132,1135,1133,1128,1128,1126,1123,1115,1101,1086,1070,1056,1042,1033,1027,1022,1017,1011,1005,1000,997,996,1002,1011,1022,1032,1041,1049,1057,1065,1071,1074,1075,1073,1071,1068,1065,1064,1063,1063,1063,1062,1061,1060,1059,1060,1062,1064,1065,1067,1069,1070,1071,1073,1074,1076,1078,1079,1081,1080,1075,1063,1051,1040,1030,1019,1008,994,980,964,945,926,909,895,884,873,861,851,841,837,837,835,830,823,816,805,794,784,773,759,744,729,715,702,689,679,671,664,660,659,664,670,676,677,676,674,672,671,672,673,672,670,668,667,666,666,666,662,658,654,647,640,632,626,619,612,605,596,588,581,574,567,561,556,553,549,546,543,541,539,537,534,531,527,522,517,512,508,505,503,501,500,499,498,498,498,497,496,494,491,488,485,484,482,482,481,478,472,467,470,471,471,471,473,474,472,469,466,464,463,463,463,461,457,458,462,467,469,470,471,471,471,470,471,473,475,477,480,482,485
1217,1213,1207,1199,1187,1174,1164,1160,1163,1169,1171,1168,1165,1164,1167,1175,1187,1203,1218,1226,1228,1224,1217,1205,1183,1156,1129,1104,1081,1060,1045,1034,1027,1023,1022,1018,1010,1000,991,985,987,993,1006,1027,1048,1071,1093,1113,1130,1145,1152,1155,1150,1144,1140,1136,1131,1121,1105,1090,1074,1061,1047,1038,1032,1027,1023,1019,1014,1009,1004,1004,1008,1014,1022,1031,1039,1046,1052,1057,1062,1064,1065,1065,1064,1064,1065,1065,1067,1068,1069,1070,1069,1068,1068,1069,1071,1072,1072,1073,1075,1077,1077,1076,1075,1075,1075,1074,1072,1066,1058,1048,1037,1025,1014,1000,986,970,955,938,919,898,883,871,862,855,846,841,837,836,837,835,828,818,808,797,787,777,766,753,738,722,708,695,684,673,664,658,655,656,659,664,669,671,670,668,666,664,663,663,662,661,660,661,661,660,659,654,650,647,642,637,631,623,614,606,597,587,578,571,564,558,553,551,549,546,544,541,538,536,533,530,525,520,516,511,508,507,504,502,502,501,502,501,501,501,500,498,495,490,487,484,483,482,481,478,474,474,473,475,475,474,475,475,477,476,472,467,466,466,467,467,465,462,461,464,469,473,474,476,476,476,477,477,480,482,485,487,489,490
1220,1218,1210,1198,1184,1172,1163,1163,1169,1175,1176,1172,1170,1173,1180,1191,1204,1217,1228,1233,1232,1225,1213,1198,1177,1153,1128,1105,1083,1064,1050,1039,1032,1029,1028,1024,1016,1006,997,991,995,1006,1025,1049,1074,1097,1118,1135,1150,1162,1166,1167,1164,1159,1153,1147,1137,1125,1110,1094,1079,1066,1052,1043,1038,1034,1031,1027,1022,1016,1012,1012,1016,1022,1027,1034,1040,1046,1049,1051,1054,1056,1057,1059,1060,1062,1066,1069,1072,1076,1077,1078,1077,1076,1077,1078,1079,1079,1080,1081,1082,1081,1077,1073,1070,1069,1068,1065,1060,1052,1041,1030,1017,1006,993,978,962,946,930,913,896,878,866,856,847,841,836,834,835,837,837,832,822,812,801,791,780,770,758,745,730,715,701,689,677,667,659,653,652,653,655,657,660,662,663,661,658,656,654,654,653,653,653,653,653,652,650,644,640,638,636,632,626,617,608,599,588,578,569,564,559,555,552,549,547,545,543,540,536,531,528,524,519,513,509,507,505,504,502,501,501,502,503,503,502,500,498,495,491,487,484,482,480,479,476,475,475,477,477,478,477,477,478,478,478,476,473,469,468,468,470,471,469,467,465,466,470,474,478,480,482,482,483,484,486,488,491,493,494,495
1221,1219,1208,1194,1179,1168,1162,1165,1173,1181,1182,1181,1182,1187,1195,1207,1219,1226,1232,1236,1234,1225,1209,1191,1170,1149,1129,1110,1089,1071,1056,1046,1040,1040,1039,1032,1023,1012,1003,998,1004,1021,1043,1071,1097,1118,1135,1150,1165,1176,1180,1179,1177,1171,1164,1154,1142,1129,1116,1100,1085,1071,1058,1050,1045,1041,1038,1034,1030,1026,1022,1023,1027,1031,1036,1041,1046,1051,1053,1055,1056,1057,1058,1060,1062,1066,1071,1076,1080,1084,1086,1086,1085,1085,1085,1086,1086,1087,1088,1086,1082,1075,1069,1065,1064,1063,1060,1054,1046,1037,1024,1009,992,978,964,951,937,923,907,891,878,864,854,846,838,833,830,830,833,836,831,824,813,806,796,785,774,763,749,735,720,707,694,682,671,661,654,650,649,649,650,650,652,653,654,652,649,647,645,644,644,644,644,643,643,642,639,634,629,628,626,623,615,606,598,590,581,572,564,559,554,551,546,543,540,539,539,536,531,527,523,518,511,506,503,500,499,498,497,497,497,497,498,497,496,493,490,489,487,484,482,479,478,477,475,476,477,479,480,479,480,481,481,481,480,479,476,474,473,474,474,474,474,473,472,471,472,477,482,486,488,488,488,489,490,492,495,497,499,500
1218,1213,1202,1187,1174,1164,1161,1168,1178,1188,1194,1196,1198,1204,1213,1222,1228,1231,1233,1234,1232,1222,1205,1186,1167,1151,1135,1118,1097,1077,1062,1053,1052,1053,1050,1041,1029,1017,1008,1005,1012,1032,1059,1086,1111,1129,1144,1159,1175,1186,1189,1187,1183,1173,1165,1153,1145,1132,1120,1106,1090,1075,1063,1055,1051,1048,1046,1042,1039,1037,1035,1036,1039,1043,1046,1050,1054,1058,1061,1062,1064,1064,1065,1069,1073,1078,1083,1087,1092,1094,1095,1095,1094,1093,1091,1090,1089,1087,1084,1077,1070,1064,1060,1058,1057,1053,1048,1039,1027,1015,998,980,963,947,932,922,913,900,887,872,863,854,846,840,834,830,828,828,828,828,821,813,805,800,791,780,767,754,740,726,713,700,687,676,666,656,651,647,646,645,644,643,643,644,644,642,639,637,635,634,634,634,634,632,631,630,627,622,618,615,614,611,603,594,586,581,577,570,562,555,549,544,539,536,534,532,531,528,524,520,516,510,504,499,495,493,491,490,489,489,490,490,490,489,488,486,485,484,484,482,480,478,476,476,475,476,477,479,481,482,483,484,485,485,484,484,484,483,482,482,482,480,480,480,479,478,478,482,490,495,497,495,494,493,494,496,499,502,505,506
1210,1204,1194,1181,1170,1164,1164,1173,1185,1198,1208,1211,1213,1218,1224,1229,1231,1232,1232,1232,1228,1218,1202,1184,1168,1156,1145,1128,1105,1082,1066,1061,1062,1063,1058,1046,1034,1022,1017,1015,1022,1041,1067,1092,1114,1132,1148,1164,1178,1189,1192,1189,1182,1172,1162,1154,1145,1135,1124,1110,1093,1079,1067,1060,1056,1054,1053,1052,1049,1047,1047,1048,1052,1056,1058,1061,1064,1066,1069,1071,1074,1076,1079,1082,1087,1093,1098,1102,1105,1106,1105,1103,1099,1094,1089,1084,1080,1077,1072,1067,1062,1059,1056,1053,1049,1041,1031,1018,1000,981,960,943,929,915,903,896,889,879,872,862,855,848,842,837,833,829,827,826,823,819,811,805,799,794,786,774,760,746,732,718,705,692,680,669,660,652,647,644,641,638,637,635,634,634,634,632,629,626,624,623,623,622,621,620,619,618,615,610,605,602,602,598,591,584,579,576,572,567,559,552,544,537,533,531,529,526,524,520,515,511,507,501,495,492,489,487,485,484,484,484,483,484,484,483,482,482,482,482,481,480,478,477,476,476,475,476,477,479,481,483,484,487,489,491,490,489,490,491,491,491,490,488,487,486,486,485,483,486,494,500,501,499,498,498,499,502,506,511,514,516
1199,1193,1183,1172,1165,1165,1170,1182,1198,1213,1223,1224,1222,1223,1226,1228,1230,1231,1231,1230,1225,1215,1201,1186,1172,1161,1148,1131,1109,1087,1072,1067,1069,1071,1065,1052,1040,1033,1029,1028,1033,1048,1072,1095,1116,1134,1150,1165,1179,1189,1193,1193,1186,1177,1167,1157,1147,1137,1126,1112,1096,1083,1073,1066,1061,1059,1059,1060,1058,1059,1059,1062,1067,1070,1071,1073,1075,1077,1079,1081,1085,1089,1093,1097,1103,1108,1113,1116,1117,1115,1111,1106,1099,1092,1086,1082,1080,1077,1072,1065,1059,1055,1050,1044,1035,1021,1007,992,972,947,926,910,899,891,882,877,873,868,863,857,852,847,842,837,832,829,826,824,818,812,804,799,795,789,779,766,751,737,722,709,696,684,673,663,655,648,644,639,636,632,629,627,625,625,624,621,618,616,613,612,611,610,609,607,607,606,603,598,593,590,589,587,583,580,576,572,567,560,552,544,536,531,528,528,525,522,518,513,507,502,497,492,488,487,485,484,483,482,482,481,480,480,480,480,480,480,480,480,479,478,478,477,476,476,476,477,478,480,481,483,484,486,490,492,492,492,496,498,500,501,499,496,493,493,493,491,489,487,490,494,498,501,503,505,507,510,514,518,522,524
1189,1182,1175,1167,1164,1168,1178,1195,1214,1231,1237,1235,1230,1228,1227,1226,1226,1228,1229,1227,1222,1213,1201,1188,1175,1163,1149,1131,1111,1092,1079,1074,1077,1077,1070,1058,1048,1043,1040,1039,1043,1055,1077,1098,1116,1133,1149,1165,1178,1189,1194,1195,1188,1179,1169,1158,1148,1138,1127,1113,1098,1087,1078,1071,1067,1065,1066,1069,1070,1073,1075,1079,1083,1085,1087,1088,1090,1093,1094,1097,1099,1103,1109,1115,1121,1125,1127,1126,1123,1118,1112,1106,1099,1092,1085,1081,1078,1075,1069,1063,1055,1046,1038,1028,1015,996,977,959,939,917,899,889,882,878,875,872,868,863,859,856,852,848,844,838,832,827,823,819,814,807,801,797,792,785,772,758,742,726,712,700,687,676,666,658,651,644,639,634,630,625,622,620,616,614,613,610,608,605,603,602,600,599,597,596,596,595,592,587,583,582,581,580,578,576,572,567,560,553,544,535,528,525,525,524,523,519,513,506,498,493,490,487,486,485,484,483,482,481,481,480,480,480,480,480,480,480,480,480,479,478,478,477,477,477,478,479,481,482,484,485,486,487,490,492,496,498,505,509,511,511,508,505,501,500,499,499,497,494,492,495,500,506,511,514,516,518,521,524,529,533
1180,1174,1169,1165,1167,1175,1189,1210,1231,1246,1248,1244,1239,1235,1229,1225,1225,1225,1226,1224,1218,1210,1200,1188,1176,1164,1149,1131,1112,1095,1085,1082,1082,1081,1075,1066,1058,1052,1050,1050,1053,1063,1081,1098,1114,1130,1146,1162,1174,1184,1191,1192,1187,1177,1167,1156,1147,1138,1127,1114,1101,1092,1084,1077,1075,1075,1077,1082,1085,1088,1092,1097,1101,1103,1104,1105,1107,1109,1111,1114,1117,1121,1126,1133,1139,1140,1138,1132,1125,1118,1111,1104,1097,1090,1084,1079,1074,1069,1061,1052,1041,1029,1018,1007,991,970,949,929,914,901,891,884,879,875,872,869,865,860,857,854,852,849,845,839,832,825,819,814,809,804,799,793,786,778,765,749,732,716,702,692,680,670,660,653,646,640,634,629,624,619,615,613,608,606,603,600,597,595,593,591,590,588,588,587,587,585,581,578,576,576,575,573,572,570,566,561,554,545,535,526,521,519,518,517,515,510,504,496,491,487,486,486,485,484,484,483,482,482,481,481,481,481,481,480,480,480,480,480,480,479,478,478,478,479,481,483,484,485,487,488,489,491,495,499,506,511,516,517,519,518,516,512,509,507,506,506,506,503,500,500,503,509,513,517,521,524,527,531,536,541
1172,1168,1167,1169,1174,1188,1205,1226,1244,1255,1256,1253,1249,1241,1231,1225,1224,1223,1221,1218,1211,1203,1193,1182,1171,1161,1148,1129,1110,1097,1090,1087,1085,1083,1078,1070,1065,1061,1060,1061,1064,1072,1085,1099,1113,1129,1142,1156,1168,1180,1187,1189,1184,1174,1165,1156,1149,1139,1128,1114,1105,1097,1092,1087,1086,1088,1092,1096,1101,1104,1109,1114,1120,1122,1122,1122,1123,1125,1127,1130,1134,1138,1141,1142,1144,1141,1137,1131,1123,1114,1106,1099,1092,1085,1079,1073,1065,1056,1046,1035,1022,1010,997,983,967,946,929,915,904,896,888,882,878,874,870,866,861,856,853,851,849,846,843,836,830,822,816,810,805,800,794,786,777,767,754,738,721,706,693,684,674,664,654,646,640,635,630,625,620,615,610,606,600,596,593,590,587,584,582,580,580,579,579,579,578,576,572,568,566,566,565,564,563,561,557,553,546,537,526,517,511,508,506,504,500,496,492,488,486,485,485,485,485,484,483,483,483,483,483,482,482,482,481,481,480,480,480,480,480,480,479,479,480,481,484,487,488,488,489,491,493,497,505,512,520,524,526,524,524,524,522,519,517,515,513,513,513,512,509,506,506,509,514,518,522,526,531,536,541,544
1167,1166,1168,1175,1185,1203,1222,1242,1256,1263,1264,1261,1254,1243,1231,1225,1223,1220,1216,1211,1205,1195,1184,1173,1163,1153,1140,1123,1106,1095,1089,1087,1086,1085,1080,1073,1069,1068,1069,1070,1073,1081,1092,1104,1115,1129,1140,1151,1164,1177,1186,1188,1183,1174,1164,1155,1147,1138,1125,1114,1110,1105,1103,1100,1101,1103,1107,1111,1116,1120,1125,1131,1137,1140,1140,1139,1138,1137,1137,1139,1139,1139,1138,1137,1135,1133,1129,1123,1116,1107,1099,1093,1087,1082,1075,1065,1053,1041,1029,1017,1004,990,975,959,943,927,916,907,900,893,886,880,876,871,866,860,856,853,850,850,847,843,837,833,825,819,812,807,801,793,784,775,763,753,740,726,710,696,685,676,667,658,648,640,634,630,625,621,615,610,603,598,591,586,582,579,576,574,572,571,570,569,569,569,568,566,562,557,555,554,553,552,551,549,545,541,535,526,517,508,502,498,495,492,489,486,485,485,484,484,484,484,485,484,484,484,484,484,484,483,483,482,482,482,481,481,480,480,480,481,481,481,482,484,486,488,490,491,492,496,501,507,516,525,532,534,534,532,530,529,528,527,526,524,521,520,520,519,516,511,508,510,515,520,524,528,534,539,542,543
1169,1170,1175,1185,1199,1218,1238,1256,1266,1270,1269,1265,1256,1244,1232,1222,1217,1214,1211,1207,1199,1188,1177,1166,1153,1139,1124,1109,1097,1090,1086,1085,1085,1085,1082,1076,1074,1074,1076,1079,1083,1091,1101,1112,1120,1129,1139,1149,1162,1173,1183,1185,1179,1169,1159,1147,1138,1134,1124,1120,1118,1117,1117,1115,1116,1118,1122,1126,1131,1135,1141,1148,1154,1156,1155,1149,1144,1140,1136,1135,1133,1131,1129,1126,1124,1121,1118,1114,1108,1101,1095,1089,1083,1075,1066,1054,1041,1027,1014,1001,987,971,955,940,929,920,913,907,899,891,883,876,871,866,861,856,852,854,854,854,852,846,836,829,821,814,808,801,795,786,774,763,750,738,726,713,698,686,676,668,660,651,642,634,629,624,620,614,608,601,594,587,581,576,572,569,566,565,563,561,560,559,559,559,558,555,552,547,543,542,541,541,539,537,533,529,523,515,507,500,495,491,489,487,486,485,485,485,485,485,485,487,486,486,487,487,487,486,485,484,483,483,483,483,483,483,482,482,482,482,483,483,485,487,490,492,494,496,499,503,509,516,525,533,539,542,541,540,538,536,536,535,535,535,532,530,528,527,524,519,514,513,517,523,527,532,537,541,543,544
1173,1177,1185,1198,1214,1233,1252,1266,1273,1275,1273,1266,1256,1244,1232,1222,1216,1213,1211,1205,1195,1183,1170,1156,1141,1126,1112,1100,1092,1088,1085,1083,1083,1083,1083,1081,1080,1081,1083,1088,1093,1101,1109,1118,1124,1131,1140,1149,1159,1168,1173,1174,1168,1158,1147,1143,1135,1134,1132,1131,1130,1129,1129,1129,1130,1131,1135,1140,1146,1151,1157,1164,1167,1165,1160,1150,1140,1133,1127,1123,1121,1119,1118,1116,1114,1112,1109,1105,1102,1098,1093,1085,1074,1061,1049,1037,1024,1009,993,977,962,950,937,926,919,915,910,902,894,885,878,871,866,861,857,853,853,856,860,858,852,842,832,823,816,809,803,795,787,778,765,752,738,725,713,702,688,678,669,661,653,644,636,629,623,618,612,606,599,591,584,578,572,567,563,560,558,557,556,554,553,551,551,550,549,546,542,537,534,533,531,530,529,526,522,518,513,506,499,494,490,488,486,485,485,486,486,487,486,487,490,492,494,493,491,491,490,489,487,486,486,486,486,486,486,487,486,487,487,487,488,489,493,497,501,505,506,507,509,512,516,523,532,540,545,547,547,546,545,544,543,543,542,541,540,538,536,533,530,525,521,519,520,523,529,535,540,543,544,546
1180,1186,1196,1211,1227,1245,1262,1274,1279,1279,1275,1266,1256,1244,1232,1222,1215,1212,1210,1203,1191,1177,1161,1145,1129,1114,1103,1095,1090,1087,1085,1083,1083,1085,1086,1086,1087,1090,1094,1099,1104,1111,1116,1122,1126,1131,1139,1146,1154,1160,1161,1160,1158,1152,1146,1146,1144,1144,1142,1141,1140,1140,1139,1139,1140,1143,1147,1153,1161,1167,1169,1170,1169,1160,1151,1139,1128,1119,1113,1109,1107,1107,1106,1104,1102,1101,1100,1097,1095,1093,1088,1078,1062,1044,1027,1013,998,982,965,950,938,929,923,916,912,908,902,894,885,878,872,866,862,857,854,851,851,853,855,852,845,835,826,818,811,804,796,789,781,771,757,743,728,715,703,692,680,670,662,654,645,636,629,623,617,610,604,597,589,582,575,569,563,558,555,553,552,551,550,549,548,546,545,543,540,536,532,528,525,524,523,521,519,515,512,509,508,505,498,492,488,486,485,485,485,486,486,487,488,490,494,498,500,500,497,495,492,491,491,491,490,490,490,489,490,493,494,496,496,496,498,500,504,511,517,521,523,523,521,522,524,530,538,544,548,550,552,552,553,553,553,551,548,545,543,541,538,535,533,531,528,525,524,526,532,538,543,548,552,554
1186,1194,1206,1220,1237,1254,1268,1277,1281,1280,1275,1267,1256,1244,1231,1221,1214,1210,1206,1198,1185,1170,1154,1137,1123,1112,1103,1095,1092,1090,1087,1085,1086,1088,1090,1093,1096,1102,1107,1112,1114,1117,1119,1122,1125,1130,1137,1145,1152,1156,1156,1156,1154,1153,1151,1153,1154,1154,1153,1151,1150,1149,1149,1148,1150,1154,1159,1166,1170,1174,1172,1166,1159,1148,1136,1124,1113,1104,1097,1094,1093,1092,1091,1089,1090,1091,1091,1090,1088,1085,1080,1067,1047,1024,1002,985,970,955,941,929,921,917,914,910,906,900,893,885,877,871,866,862,858,854,850,848,847,845,845,841,835,827,820,813,806,798,790,782,774,764,749,733,719,707,695,683,673,664,655,646,636,628,620,615,609,602,594,587,580,573,567,560,554,552,549,547,546,546,545,544,543,541,539,534,530,527,524,521,518,515,513,512,510,508,507,508,508,503,496,489,486,486,485,485,486,486,487,489,491,495,498,501,502,502,501,501,499,498,496,496,495,495,495,496,498,502,504,506,506,507,509,512,518,524,531,535,538,538,535,533,532,536,542,548,552,555,557,559,561,563,563,560,555,550,546,542,538,536,535,534,533,531,531,534,538,543,549,555,560,563
1192,1202,1214,1229,1245,1261,1272,1279,1282,1281,1276,1267,1256,1244,1231,1220,1213,1208,1202,1193,1181,1166,1152,1141,1132,1123,1113,1104,1099,1096,1094,1092,1094,1096,1099,1103,1109,1114,1120,1120,1119,1120,1120,1122,1125,1132,1139,1148,1154,1158,1156,1155,1155,1155,1155,1158,1160,1162,1162,1160,1159,1158,1157,1156,1158,1162,1167,1173,1172,1171,1164,1156,1146,1134,1122,1110,1099,1090,1083,1079,1077,1076,1075,1076,1080,1083,1083,1080,1075,1070,1063,1047,1024,998,975,956,943,932,922,914,909,908,906,904,899,892,884,876,870,866,862,858,854,850,846,843,841,837,834,831,825,819,812,806,799,792,784,775,764,752,739,725,711,700,688,676,665,656,646,637,628,619,611,605,599,591,584,577,571,565,559,553,548,546,544,542,540,539,539,538,536,534,531,527,524,521,519,516,513,508,506,505,505,505,504,503,500,496,490,487,486,486,486,486,486,487,488,492,497,501,502,503,502,502,503,505,505,505,504,502,501,501,502,505,508,513,517,519,519,519,521,524,529,533,539,543,549,550,549,545,543,544,549,556,562,566,568,569,570,573,573,568,561,554,548,543,539,536,535,534,533,533,535,539,544,549,555,562,567,571
1198,1208,1221,1237,1254,1269,1277,1282,1284,1282,1276,1266,1255,1244,1232,1220,1212,1208,1203,1195,1182,1169,1158,1150,1144,1136,1125,1116,1109,1107,1107,1108,1112,1116,1121,1124,1128,1128,1127,1124,1122,1122,1124,1125,1130,1135,1143,1150,1155,1156,1156,1154,1154,1156,1157,1162,1167,1171,1171,1169,1168,1167,1166,1164,1166,1170,1171,1173,1168,1161,1153,1144,1133,1122,1110,1099,1086,1076,1069,1064,1063,1063,1065,1070,1076,1078,1073,1066,1057,1047,1035,1016,991,966,947,934,924,914,905,900,898,897,896,894,889,882,875,869,864,861,857,853,849,846,842,838,835,829,824,820,814,808,803,798,793,785,775,764,752,740,727,715,704,693,681,669,657,647,637,627,618,609,602,595,588,581,575,568,562,557,552,548,543,540,538,536,535,533,532,531,529,526,524,520,518,516,514,512,509,505,502,500,499,499,498,495,491,488,487,486,486,486,486,486,487,489,492,497,502,506,508,507,505,504,505,507,509,511,511,509,510,510,512,516,520,526,532,534,533,533,534,535,538,541,544,548,554,559,562,558,554,554,559,566,573,579,581,581,580,581,580,573,565,557,551,545,540,537,535,534,534,534,537,541,548,555,562,569,574,577
1204,1215,1229,1246,1263,1277,1285,1289,1288,1283,1276,1266,1256,1245,1235,1225,1218,1213,1208,1198,1183,1170,1164,1161,1154,1142,1131,1126,1125,1127,1130,1133,1136,1140,1142,1143,1142,1140,1136,1130,1125,1127,1129,1130,1133,1138,1142,1148,1153,1155,1156,1156,1156,1160,1165,1171,1176,1180,1179,1177,1176,1176,1173,1172,1172,1174,1170,1166,1159,1153,1144,1135,1123,1111,1098,1086,1073,1063,1058,1056,1057,1063,1068,1072,1071,1069,1061,1050,1038,1024,1009,988,966,946,930,918,909,901,894,891,888,885,883,881,877,873,868,864,860,856,851,847,843,840,836,832,827,821,815,810,805,799,794,790,785,777,765,753,741,729,718,707,696,685,673,660,648,637,627,617,607,599,592,585,579,572,567,561,555,550,545,542,538,534,533,531,530,529,528,526,524,520,517,514,512,510,509,507,505,502,498,495,493,492,490,488,487,486,486,486,486,486,486,487,488,492,497,502,506,510,512,511,510,510,510,512,514,516,517,518,518,520,522,527,532,539,548,551,550,546,546,544,546,548,551,555,558,564,568,569,565,564,568,575,582,588,594,593,590,584,580,573,566,559,554,548,543,538,536,534,534,536,539,544,552,560,567,571,576,580
